# .PCD v0.7 - Point Cloud Data file format
VERSION 0.7
FIELDS x y z normal_x normal_y normal_z curvature
SIZE 4 4 4 4 4 4 4
TYPE F F F F F F F
COUNT 1 1 1 1 1 1 1
WIDTH 567
HEIGHT 1
VIEWPOINT 0 0 0 1 0 0 0
POINTS 567
DATA ascii
-0.021235395 0.083910294 0.056335438 -0.45295671 0.057830255 0.88987476 0.023234373
-0.024463216 0.083867364 0.053894561 -0.70898288 0.054938264 0.70316988 0.020209072
-0.025088647 0.083833866 0.053128555 0.75309664 -0.049855709 -0.65605813 0.018360525
-0.080295689 0.14612269 0.041205026 0.37648058 -0.69529229 -0.61228019 0.0064737136
-0.089470446 0.13103814 0.042276166 0.8837899 -0.27458566 -0.37884888 0.0085881073
-0.057783585 0.091210686 -0.021051532 0.2818099 -0.043239728 0.95851785 0.006001872
-0.058841594 0.091171265 -0.020614609 0.31004295 -0.054403853 0.94922197 0.0046565686
-0.061916552 0.0910739 -0.019312818 0.3456727 -0.079672024 0.93496686 0.00256183
-0.062826589 0.091041416 -0.018959956 0.34360734 -0.085872456 0.93518251 0.0024546972
-0.063755766 0.091010056 -0.018634474 0.33803633 -0.09211608 0.93662161 0.0023193513
-0.064701088 0.090977259 -0.018331178 0.32995915 -0.098003469 0.9389019 0.0020321982
-0.065769978 0.090957411 -0.018013446 0.32340223 -0.10254063 0.94069099 0.0015370938
-0.051804755 0.09130168 -0.022009267 0.065476507 0.011833562 0.99787116 0.0036254299
-0.050805971 0.091285445 -0.021965131 0.042527683 0.018448062 0.99896914 0.0021685844
-0.049820747 0.091275416 -0.021924203 0.031151451 0.023719588 0.99924994 0.0018710017
-0.045832157 0.091307431 -0.022061545 0.067744926 0.033897392 0.99713439 0.0056577767
-0.044823982 0.091332823 -0.02218201 0.088506334 0.033556007 0.99552029 0.0066153654
-0.046841133 0.091288947 -0.021976234 0.049513362 0.033466097 0.99821866 0.0046238326
-0.086580493 0.11378435 0.045191363 -0.46117306 -0.64906651 0.60501295 0.024895927
-0.060063489 0.13548288 -0.006642174 -0.36486331 -0.17534806 0.91448438 0.0072383364
-0.052098159 0.15461445 -0.0040648063 0.50764191 0.05956576 0.85956061 0.021845518
-0.056845173 0.10970569 -0.017447593 0.23893917 -0.34659234 0.90707952 0.0037741042
-0.067151137 0.072500326 0.037165269 -0.37931612 -0.58613318 0.71596944 0.0033305518
-0.062764287 0.10389736 -0.017301409 0.3664608 -0.24012421 0.8989346 0.0041711982
-0.064919427 0.12237771 -0.0088505736 0.03680443 -0.13138977 0.99066412 0.016370989
-0.066844262 0.089506522 -0.017847758 0.3243396 -0.082681231 0.94232297 0.0015216015
-0.018717144 0.094602972 0.052052647 0.40449044 -0.67151636 -0.62100542 0.011270192
-0.08243078 0.10329782 0.029175699 0.79540402 -0.13937789 -0.59139389 0.026875673
-0.073293351 0.07913997 0.037685197 -0.5384835 -0.40120849 0.74099135 0.0030834647
-0.076060861 0.087423854 0.038745001 -0.61205226 -0.10458049 0.78387606 0.006066618
-0.025711592 0.036685012 0.053766318 -0.13802737 -0.57664335 0.81573385 0.087365925
-0.082999475 0.12854667 0.051436465 -0.49524653 0.047198605 0.86767113 0.022299502
-0.05913417 0.1564949 0.0037363188 0.48442212 -0.83764964 0.25806284 0.08385887
-0.088152476 0.14455681 0.033537801 0.83998561 -0.41129464 -0.3539879 0.022278208
0.019192152 0.096013099 -0.023083759 -0.30902281 -0.35761115 0.88129908 0.0067229746
-0.017821625 0.089628287 -0.037348703 0.10504249 -0.46416309 0.87953758 0.011437231
-0.0028876106 0.10444771 -0.022506852 -0.14212205 -0.35096079 0.9257369 0.014344913
-0.048086692 0.067256697 0.038543411 -0.38549712 -0.39479277 0.83401853 0.021050574
-0.047270712 0.067163453 0.038997561 -0.3918618 -0.3530336 0.84962237 0.020426933
-0.046302844 0.067085169 0.039537314 -0.38548717 -0.30696547 0.87029552 0.018813489
-0.032084201 0.036714934 0.050780304 -0.51386929 -0.58143932 0.65238708 0.08969295
-0.044446025 0.067097537 0.040545858 -0.32582006 -0.23741683 0.91526693 0.017744657
-0.01781146 0.094693668 0.052592222 -0.36915204 0.67417377 0.64032328 0.013394583
-0.077239804 0.084660463 0.037207235 -0.64346087 -0.2164229 0.73424953 0.0062277014
-0.08575692 0.086902782 0.02587083 0.87801456 0.25355849 -0.40597066 0.0070619336
-0.083134912 0.11906606 0.049060427 -0.38986605 -0.2981351 0.87142235 0.011025595
-0.087740138 0.14456497 0.03455529 0.80914068 -0.45109075 -0.37699947 0.020039134
-0.08741881 0.1365449 0.042899109 0.79771066 -0.35864878 -0.48480085 0.0099668549
-0.088105761 0.1472802 0.030577309 0.7785753 -0.49993026 -0.38109815 0.022147996
-0.088570066 0.09222623 0.022862982 0.93634325 0.097355157 -0.33738407 0.0098223332
-0.076912344 0.16325872 -0.019083224 0.87309599 -0.4442997 -0.24512564 0.082716048
-0.082993634 0.093930461 0.03138458 0.76567644 -0.033393521 -0.64238131 0.0030467573
-0.040140949 0.1621809 -0.011990596 0.43653607 0.13098605 0.89059651 0.016354701
-0.087778278 0.13247673 0.044793177 0.81007224 -0.28677109 -0.51143312 0.0071370704
-0.026147276 0.06632933 0.040594619 -0.58610618 -0.25851172 0.7678957 0.0441292
-0.025537023 0.066442847 0.041398641 -0.66248369 -0.2632871 0.70163006 0.035644628
-0.02497834 0.066490926 0.042266287 0.72205603 0.26025492 -0.64192879 0.026627511
-0.02445755 0.066524804 0.043173015 0.76614708 0.26040593 -0.58844942 0.016322259
-0.023973996 0.06658721 0.04413842 0.79617387 0.26152521 -0.54600453 0.0075233872
-0.023524448 0.066598423 0.045086283 0.81417549 0.26250216 -0.51796198 0.0022302477
-0.023055086 0.06662225 0.046003748 0.81699389 0.26628438 -0.51156211 0.0017749337
-0.022577034 0.066647477 0.046917234 0.80879545 0.27270588 -0.52118534 0.0026617071
-0.022080438 0.066675097 0.047818001 0.79452527 0.27713543 -0.54058003 0.0042746682
-0.02157305 0.066751823 0.04874463 0.77365452 0.28139502 -0.56813806 0.0069535421
-0.021043934 0.066791378 0.049616709 0.74603564 0.28182438 -0.60380328 0.010476749
-0.020483885 0.066842385 0.050463691 0.70847547 0.28108311 -0.64811099 0.015170167
-0.019852629 0.066878788 0.051230375 -0.66616619 -0.2756319 0.69341469 0.017292414
-0.019165233 0.06694448 0.051939536 -0.61434805 -0.26795518 0.74219257 0.018230328
-0.018356731 0.0669199 0.052546009 -0.56077874 -0.25560203 0.78753453 0.018208958
-0.017479779 0.066924512 0.053063776 -0.50565791 -0.24238762 0.82800424 0.017341865
-0.016560754 0.066946402 0.053497639 -0.45272446 -0.22776765 0.86210614 0.015184509
-0.07499148 0.15925905 -0.0081777927 0.63774836 -0.66767567 -0.39449215 0.083346047
-0.087878503 0.12844597 0.046406299 0.77120429 -0.18603341 -0.60882723 0.010717475
-0.092662327 0.12148861 0.041590132 0.94041032 0.0072121317 -0.34001532 0.021757305
-0.01192678 0.066640332 0.054899849 -0.28472483 -0.15923232 0.94535983 0.0063278177
-0.052864294 0.10975102 -0.018190209 0.12616861 -0.35738608 0.92543584 0.0036686966
-0.077975392 0.1178269 0.050891876 -0.32920116 -0.3711955 0.86859363 0.013927443
-0.06794142 0.12677562 -0.0089990962 0.011643672 -0.034321669 0.99935299 0.0035354362
-0.028640786 0.036737721 0.053062893 -0.32910472 -0.5455243 0.77822483 0.08959955
-0.082764685 0.1046361 0.028099762 0.83419198 -0.0671039 -0.54893011 0.043464247
-0.08291173 0.11777774 0.048758913 -0.36786523 -0.35878143 0.85805869 0.012605912
-0.084100448 0.11783667 0.048456371 -0.38751271 -0.34256563 0.85599679 0.013346468
-0.078060448 0.095444061 0.036303069 -0.67201823 0.13990475 0.72720665 0.0024915563
-0.065739773 0.086675473 -0.018449595 0.31864139 -0.019695604 0.94769287 0.0027385894
-0.080918878 0.11593328 0.048637856 -0.33029258 -0.4818486 0.81182468 0.018501045
-0.092238195 0.12017802 0.042585514 0.90253121 0.10778298 -0.41691792 0.024208901
-0.076568663 0.16460858 -0.020830423 0.80595183 -0.53343284 -0.27900821 0.081766538
-0.086551584 0.12039183 0.048182636 -0.51460356 -0.17678347 0.83912277 0.016385442
-0.082495324 0.14078599 0.044989046 -0.4930625 0.56438661 0.66209424 0.0077009201
-0.016980974 0.094628453 0.053141657 -0.33297583 0.66125584 0.67319149 0.015618809
-0.027622361 0.087675959 0.047059417 0.73270059 -0.14113533 -0.66685563 0.039600559
-0.025679324 0.082423456 0.052333489 0.7938447 0.054082397 -0.60612029 0.016111659
-0.024952587 0.075188607 0.048975177 0.79431254 0.34302798 -0.50155854 0.0052174954
-0.08316531 0.10595882 0.027017191 0.86810946 0.019931173 -0.4961125 0.051641673
-0.073651172 0.15023629 -0.030960141 0.82333893 0.55749029 0.19561639 0.079676554
-0.071234941 0.15177624 -0.040779594 0.58367091 0.80026543 0.43521729 0.14256558
-0.076371774 0.15497385 -0.003869344 0.82077193 -0.5787015 -0.050252158 0.091172792
-0.021361217 0.078287154 0.055230327 -0.50275105 -0.26282841 0.82366663 0.018622527
-0.086582705 0.086826406 0.023918258 0.89372218 0.29059231 -0.34182876 0.0066271592
-0.015323538 0.17641389 -0.022084136 0.56462008 0.23008612 0.79315817 0.12658049
-0.076614 0.1673467 -0.026505522 0.7871713 -0.57031363 -0.27941722 0.080667913
-0.072780386 0.094163448 0.040829089 -0.48046401 0.14381307 0.86515743 0.0070814565
-0.076986641 0.10348813 0.034987733 -0.64719224 -0.027343433 0.76203132 0.058577809
-0.09090326 0.12693892 0.04242637 0.88767004 -0.2413094 -0.3923195 0.011495001
-0.090342842 0.12426022 0.044811964 0.81082302 -0.11839194 -0.5733797 0.015084939
-0.080973215 0.091287151 0.033683326 0.75405908 -0.0069205426 -0.65678287 0.0023892012
-0.086626075 0.13519245 0.045006987 0.75285816 -0.35781306 -0.55243719 0.0084298896
-0.076655693 0.15486267 -0.0063170576 0.92701578 -0.38108617 -0.076100335 0.080100298
-0.026864579 0.086409464 0.049172387 0.81224817 -0.16021453 -0.56178743 0.017683707
-0.070721321 0.087395653 0.041981693 -0.45494449 -0.094555743 0.88549668 0.0058144331
-0.022182742 0.08391165 0.055859588 -0.52587175 0.060660101 0.84870058 0.024907116
-0.066963777 0.13260783 -0.0085638575 -0.048349604 -0.10301928 0.99350822 0.005374488
-0.082669802 0.14349318 0.042259142 0.50312841 -0.61358297 -0.60858989 0.0059403628
-0.084824711 0.086962819 0.02774132 0.8612693 0.21032009 -0.46258372 0.0070205769
-0.076555863 0.081888191 0.036617797 -0.61859119 -0.32854918 0.71374118 0.00467386
-0.075286716 0.10987009 0.0420269 -0.045001552 -0.8851459 0.46635202 0.043412205
-0.065040372 0.13699935 -0.0077332905 -0.20149507 0.010192972 0.97990072 0.042670038
-0.057897575 0.10406841 -0.018707618 0.27508566 -0.2495791 0.92850715 0.0033545892
-0.056956172 0.10413738 -0.018925047 0.25602612 -0.25870058 0.93142575 0.0030263213
-0.05594882 0.1041562 -0.019163473 0.23526846 -0.26576445 0.93489075 0.0027106791
-0.053916924 0.10417347 -0.019665428 0.1951112 -0.28113201 0.93963468 0.0027602764
-0.052903436 0.10418552 -0.019904101 0.17296629 -0.28666738 0.94230324 0.0029331041
0.0041786078 0.092283957 -0.03254633 -0.29596916 -0.45245317 0.84126168 0.016440729
-0.054946855 0.10417798 -0.019409984 0.21601374 -0.27350748 0.93730181 0.0026352266
-0.077710606 0.1398038 -0.0049034497 0.60261339 -0.059803121 0.79628754 0.023766931
-0.07781063 0.12079811 -0.0064813895 0.40235671 0.15003666 0.90312344 0.0042308206
-0.030083505 0.17189094 -0.014034316 0.38770476 -0.31119031 0.86830056 0.18185303
0.011124825 0.10869846 -0.019263417 -0.22436321 -0.30009928 0.92724156 0.0073970798
0.015088875 0.1086098 -0.018005187 -0.28172153 -0.36861205 0.88592499 0.0075189201
-0.073929012 0.12964208 -0.0081610717 0.26780641 -0.085508533 0.95968026 0.0056478046
-0.025232552 0.034998648 0.052057456 -0.081866294 -0.79356676 0.60582995 0.08577507
-0.054951075 0.14423965 -0.0015103891 -0.3711876 0.037695315 0.92903835 0.068063915
-0.066981509 0.13405862 -0.0083130235 -0.052996434 -0.078408621 0.99563408 0.013335412
-0.069856241 0.11943084 -0.0084834276 0.21550004 -0.038695853 0.97578943 0.01527705
-0.073848546 0.10780722 -0.0096552493 0.52687067 -0.35010427 0.77451563 0.0027890222
-0.072785944 0.08932171 -0.015660819 0.47258487 -0.045433391 0.88012922 0.0064269598
-0.090425536 0.14841773 0.02449335 0.8596614 -0.44113031 -0.2602095 0.027448867
-0.076950163 0.17268144 -0.043571912 0.36175311 -0.79803783 -0.48273879 0.14085896
-0.028877689 0.07480973 0.041744705 -0.48792863 -0.28924558 0.82407039 0.061964296
-0.084494516 0.1298752 0.05009938 -0.6103425 0.14987187 0.77790707 0.01745815
-0.083786994 0.12853013 0.050854221 -0.54898316 0.056449424 0.8340562 0.020522758
-0.084556706 0.12850775 0.050197858 -0.59760064 0.072433732 0.79867941 0.01859
-0.024459591 0.087886557 0.052371714 0.70546132 -0.30445439 -0.64009386 0.011642858
-0.028081456 0.080790162 0.046351168 0.80270422 0.19235781 -0.56643969 0.035214022
-0.02105297 0.089374267 0.054612704 -0.49273169 0.38559678 0.78027886 0.015273557
-0.078308135 0.091380775 0.036672771 -0.69475085 0.034487061 0.71848196 0.0031429802
-0.086494364 0.091038696 0.026514567 0.86428189 0.12104908 -0.4882932 0.0061623692
0.0081138629 0.10438792 -0.020702749 -0.11566043 -0.31923223 0.94065881 0.0081758164
0.010168022 0.10450643 -0.020482661 -0.11739764 -0.33891943 0.93351197 0.0092596645
-0.066899464 0.1108999 -0.012156592 0.43255118 -0.38138217 0.81698698 0.0015531995
-0.023798136 0.087922655 0.053113446 -0.66486567 0.31377214 0.67792147 0.012657158
-0.082245588 0.083082102 0.030988695 0.81063545 0.28825343 -0.50974447 0.0091647431
-0.075674653 0.1674121 -0.024629265 0.61403871 -0.71601987 -0.3346 0.076353475
-0.042789374 0.091388308 -0.022501918 0.13169295 0.027527353 0.99098843 0.0076859035
-0.084156513 0.09113919 0.02977577 0.80985075 0.065130472 -0.58303624 0.0038227057
-0.086004883 0.13929574 0.04284681 0.70331728 -0.4570744 -0.5447107 0.010276553
-0.075434752 0.10352755 0.036230575 -0.56206548 -0.030146547 0.82660019 0.073466115
-0.08685042 0.13652122 0.043787178 0.76272005 -0.37826657 -0.52458155 0.0091829263
-0.088631302 0.14728643 0.029650887 0.80454421 -0.46792442 -0.36756608 0.024465231
-0.078341894 0.088702887 0.03678203 -0.69444984 -0.048777305 0.71792287 0.0046026343
-0.074902087 0.16202803 -0.01255816 0.55679744 -0.71230769 -0.42923805 0.070922658
-0.082319438 0.093957685 0.03212982 0.75419354 -0.045033053 -0.65513325 0.0028465181
-0.083485499 0.14340767 0.041644379 0.54838681 -0.59752589 -0.58512807 0.006685419
-0.0729165 0.080568597 0.038658019 -0.52486807 -0.35871938 0.77190989 0.0028435618
-0.016028496 0.094620973 0.053582281 -0.29605201 0.64842707 0.70230955 0.015495862
-0.02585952 0.067861617 0.041654982 -0.65069801 -0.28399825 0.70448422 0.038241029
-0.025312942 0.067901596 0.042546351 0.71729422 0.28280395 -0.63721085 0.025896586
-0.024787594 0.067977563 0.043468777 0.76106977 0.28534737 -0.583435 0.018049512
-0.024321739 0.068029374 0.044451248 0.79526532 0.28376862 -0.53604615 0.0066734222
-0.023868265 0.068040885 0.045393098 0.81181931 0.28621936 -0.50902927 0.0020601982
-0.023417095 0.068056121 0.046323869 0.81497967 0.28969291 -0.50194877 0.0012735645
-0.022940073 0.068120986 0.047270939 0.80653405 0.29491287 -0.51246899 0.0022033507
-0.022458326 0.068144113 0.04817507 0.79074132 0.29742244 -0.53524369 0.0038131461
-0.021945097 0.06817957 0.049064383 0.7696082 0.29856089 -0.56462842 0.0059351693
-0.021419663 0.068217628 0.049944047 0.74068701 0.29851416 -0.6022681 0.0098716216
-0.020856617 0.068315327 0.050804004 0.70095712 0.29593453 -0.64924484 0.014322773
-0.020228483 0.068355575 0.051562328 -0.65536737 -0.29122308 0.69709015 0.017018372
-0.019522915 0.06838163 0.052243669 -0.60505486 -0.28338411 0.74423414 0.018938458
-0.018699359 0.068362124 0.052828562 -0.54905879 -0.2715444 0.79046673 0.018707978
-0.017845804 0.06841094 0.053318836 -0.49518353 -0.25930166 0.82926774 0.017417226
-0.087778002 0.13920499 0.040374655 0.81604743 -0.38661101 -0.42999801 0.014223966
-0.02324212 0.076833256 0.052897319 -0.676099 -0.32226568 0.66280967 0.014178389
-0.027817968 0.079349115 0.04611358 0.79975599 0.24356243 -0.55073601 0.029321071
-0.023692138 0.081151813 0.054601956 -0.65257245 -0.12929486 0.74686915 0.022974692
-0.078709111 0.084663324 0.035857555 -0.69136471 -0.20843844 0.69178951 0.0066153607
-0.022739327 0.075378753 0.05244137 0.67280459 0.34143087 -0.65633619 0.013111681
-0.018775785 0.090713471 0.055114575 -0.36664873 0.4362343 0.82182842 0.015103005
-0.052151736 0.15609218 -0.0041257646 0.57084918 -0.019508323 0.8208884 0.022543496
-0.057746369 0.088341616 -0.021082973 0.25492123 0.0062687951 0.96695727 0.0052021067
-0.083101064 0.10325643 0.028443713 0.8023873 -0.16659336 -0.57409281 0.020957932
-0.08515209 0.1177964 0.04817082 -0.41941324 -0.33788428 0.84266979 0.015641997
-0.085025631 0.10055836 0.027558913 0.80782014 -0.2252557 -0.54471099 0.0040597748
-0.085431494 0.13254504 0.048125613 0.68497258 -0.29550296 -0.66608179 0.0096282708
-0.087255463 0.1499261 0.028284658 0.65540695 -0.66229123 -0.36485714 0.018854287
-0.088261083 0.1391556 0.039475992 0.85199147 -0.35762873 -0.38259032 0.015209602
-0.088019416 0.090900347 0.023763943 0.91484982 0.15379493 -0.37350538 0.009495182
-0.07385511 0.092166305 -0.014891614 0.49795204 -0.10217445 0.8611809 0.0066944426
-0.083967358 0.10454771 0.026497107 0.85390759 -0.12334538 -0.50683826 0.032745447
-0.086695939 0.14992082 0.029148055 0.63215148 -0.67497873 -0.38216689 0.016938992
-0.076883525 0.15478817 -0.010144387 0.98893809 -0.13079363 -0.07340318 0.050557103
-0.076820701 0.15479901 -0.008844194 0.97312254 -0.21655416 -0.085437335 0.060988821
-0.023379508 0.075388893 0.05167684 0.71367663 0.34465548 -0.60985804 0.011565774
-0.033131372 0.162202 -0.014448241 0.20183447 0.37071106 0.90655529 0.016180709
-0.0766792 0.15618573 -0.0090571363 0.93964195 -0.30713338 -0.16777074 0.072066031
-0.023940431 0.075336218 0.050822891 0.74884868 0.34450167 -0.56626385 0.0087477705
-0.076458946 0.084672101 0.037833754 -0.61853242 -0.21804786 0.75490469 0.0056494637
-0.08294706 0.12992425 0.051408935 -0.49763677 0.13348125 0.8574906 0.024624206
-0.084237568 0.15001015 0.03232 0.53086042 -0.73325539 -0.42516005 0.01014243
-0.089521237 0.11752625 0.045591794 0.67722994 0.32744089 -0.65901637 0.028342992
-0.026614862 0.075135745 0.045084152 0.76551461 0.32830846 -0.5545643 0.023478428
-0.085267797 0.12712085 0.049524371 -0.61505985 0.031625353 0.78800666 0.017814403
-0.075550616 0.16472349 -0.01885573 0.62031806 -0.69699115 -0.36002845 0.065397553
-0.028849404 0.08487498 0.045538776 -0.709755 -0.037847478 0.70477861 0.053763129
-0.066806667 0.088071018 -0.018000023 0.32457125 -0.053739537 0.94433945 0.0018057054
-0.08030235 0.12153882 0.050821453 -0.37207878 -0.23605783 0.89770287 0.0085812556
-0.086145483 0.095144846 0.027432622 0.83886486 -0.040640716 -0.54284751 0.0051039099
-0.087705307 0.092309877 0.024803899 0.89943582 0.085397832 -0.42871657 0.0082422169
-0.065910019 0.1151839 -0.010392652 0.34626418 -0.34799778 0.87150949 0.01523679
-0.027306369 0.086360775 0.048222605 0.80247015 -0.12217567 -0.58558404 0.025350334
-0.014284901 0.17001158 -0.019411393 0.3313885 0.59123129 0.73574674 0.1264022
-0.054965306 0.12819371 -0.0057870829 -0.27350554 -0.38256785 0.88266975 0.030013749
-0.073296502 0.081937134 0.039003313 -0.53197515 -0.31771094 0.78494191 0.0030417542
-0.07412114 0.081905112 0.038429148 -0.55190104 -0.32054007 0.76984763 0.0032315187
-0.07494539 0.081874363 0.037848268 -0.57331175 -0.32412961 0.75251287 0.0037062233
-0.075770788 0.081900001 0.037246536 -0.59544152 -0.32622004 0.73423105 0.0039985087
-0.081371076 0.081738658 0.031558298 0.77699649 0.34746841 -0.52494693 0.0092849806
-0.089708664 0.11233354 0.016918259 0.81288165 0.57845056 -0.082268395 0.028256567
-0.059339736 0.065207198 0.032850053 -0.24372998 -0.79726291 0.5522781 0.0036109004
-0.073895842 0.11644479 -0.007180356 0.41427806 0.010143818 0.91014045 0.021689229
-0.081014328 0.13389371 -0.003702329 0.58040494 -0.20521592 0.78807694 0.0065521873
-0.078954346 0.13392675 -0.0051051034 0.50727141 -0.16949725 0.84502065 0.0071068532
-0.0797185 0.11634589 -0.00400342 0.53559887 0.2165661 0.81634319 0.013445173
-0.060933039 0.11814759 -0.010711222 0.23310865 -0.46423575 0.85453439 0.017435726
-0.045868605 0.10420024 -0.020699503 0.034256015 -0.287781 0.95711082 0.0034315193
-0.020462383 0.16952686 -0.016429866 0.18939228 0.39150649 0.90072966 0.17123337
0.014118187 0.10864994 -0.018339245 -0.26940835 -0.35453287 0.89542753 0.0075725662
-0.047101989 0.15313067 -0.006172515 0.30862916 0.38237911 0.87104285 0.0208259
-0.022979144 0.16682667 -0.014476698 0.011050235 0.4822709 0.87694591 0.18427581
-0.044101421 0.15309615 -0.0071458849 0.19451986 0.5141297 0.83600479 0.026962444
-0.063927241 0.12095918 -0.0089945449 0.093664199 -0.22889175 0.96898896 0.022790818
-0.069838442 0.089415088 -0.016803833 0.37726042 -0.072326884 0.92329723 0.0022953239
-0.067905664 0.089480624 -0.017500037 0.33606836 -0.080542371 0.93839532 0.0015551195
-0.068912022 0.089445777 -0.01713963 0.35294196 -0.077719718 0.93241781 0.0017272061
-0.070840314 0.089385636 -0.016425528 0.40600985 -0.06503316 0.91157353 0.003178979
-0.07179746 0.089350984 -0.016068429 0.43976158 -0.056544777 0.8963753 0.0048467843
-0.074709944 0.08924751 -0.014659588 0.55829805 -0.017939299 0.82950884 0.0093137305
-0.073799983 0.089283153 -0.015179898 0.51477474 -0.032298006 0.85672086 0.0078936433
-0.049029268 0.15466771 -0.0058282716 0.43595967 0.21326844 0.87436837 0.018350787
-0.083274633 0.12032717 0.049306288 -0.41282025 -0.24626929 0.87695855 0.010168517
-0.082020298 0.12015002 0.04971002 -0.39001447 -0.26858327 0.88080776 0.0098652123
-0.080931269 0.12012307 0.050122913 -0.37866914 -0.27826658 0.88272834 0.0093903849
-0.080056682 0.12021356 0.050529744 -0.36824286 -0.27635527 0.88774353 0.0088892384
-0.079279087 0.10207493 0.033074714 0.71022338 -0.10677794 -0.69649565 0.026238661
-0.078571305 0.10209413 0.033777133 -0.69153649 0.096119083 0.71636862 0.028614419
-0.069808371 0.087405674 0.042462844 -0.42994559 -0.086843424 0.89869857 0.0063466784
-0.089301772 0.1336993 0.04067808 0.90755969 -0.27220845 -0.31978306 0.010080731
-0.086809278 0.10172805 0.023724014 0.88262016 -0.25678328 -0.39386302 0.0054801167
-0.087837219 0.099038363 0.0233621 0.90907383 -0.19108485 -0.37023786 0.006386315
-0.063307203 0.16592254 -0.057143148 0.72380954 0.1318915 0.69624096 0.14687072
-0.078770302 0.10941663 0.03977906 -0.25229526 -0.89961785 0.35936892 0.046977632
-0.075878702 0.1252308 -0.007700305 0.32811347 0.010735076 0.94458687 0.0044630258
-0.087397933 0.099080734 0.024326326 0.8900826 -0.19301766 -0.41292259 0.0061879805
-0.021101478 0.085284024 0.056175668 -0.45049378 0.14493078 0.88103431 0.021424321
-0.06092428 0.1223529 -0.0087197879 0.018656107 -0.31975725 0.94733548 0.026954317
-0.042875301 0.10841867 -0.019261086 0.04636224 -0.38429946 0.92210895 0.0033207431
-0.088233419 0.13513893 0.042347565 0.84872985 -0.31025773 -0.42832154 0.0098120179
-0.089619622 0.13367255 0.039573807 0.92803752 -0.26184517 -0.26495606 0.0099056745
-0.084930457 0.095205612 0.02905591 0.80231422 -0.049006715 -0.59490144 0.0039573824
-0.08494211 0.13661952 0.046112668 0.6509251 -0.43075511 -0.62509936 0.0088387793
-0.090564363 0.12962885 0.040555321 0.91861725 -0.27825353 -0.28065661 0.00982894
-0.079021744 0.08866892 0.03605473 0.71535408 0.04946658 -0.69707954 0.004249976
-0.08633323 0.10175895 0.024667764 0.864851 -0.25299978 -0.43371287 0.0055600591
-0.027888661 0.084956497 0.047441676 0.80771893 -0.030697059 -0.59010488 0.032238595
-0.08097396 0.092647702 0.033640862 0.74415135 -0.037841439 -0.66695541 0.0024183565
-0.086922474 0.099128202 0.02523371 0.87061101 -0.1934714 -0.45236281 0.0057636416
-0.086402617 0.099168353 0.026122808 0.85024959 -0.19291252 -0.48978403 0.0053674723
-0.026183804 0.069265507 0.041942932 -0.64334506 -0.29742971 0.70553946 0.040635776
-0.025625553 0.06936232 0.042814273 0.70698482 0.30260313 -0.64017528 0.031958286
-0.025106154 0.06943652 0.043749154 0.75354534 0.30362603 -0.58467299 0.022624142
-0.024651833 0.069440521 0.044711966 0.78803653 0.30179325 -0.53718811 0.0098727271
-0.02421565 0.069442742 0.045668408 0.80819857 0.30451763 -0.50418097 0.0024470896
-0.023777684 0.06948518 0.046638761 0.81322402 0.30789605 -0.49386227 0.0011689438
-0.023319557 0.0695052 0.047561299 0.80330354 0.31190607 -0.50747842 0.0024465099
-0.022832097 0.069572173 0.048498657 0.78584492 0.31540143 -0.53210229 0.0042514633
-0.022317069 0.069604807 0.049388967 0.76386261 0.3143138 -0.5637784 0.0061791721
-0.021790165 0.069644161 0.05027049 0.73371708 0.31207767 -0.60397053 0.010332951
-0.021217391 0.069702685 0.051109545 0.69312668 0.30988699 -0.6510784 0.014717454
-0.020582724 0.069747776 0.051875383 -0.6454621 -0.30580282 0.70001584 0.017727636
-0.01985964 0.069780931 0.052545015 -0.59305382 -0.29767278 0.74825311 0.019223899
-0.019051343 0.069800273 0.053126905 -0.537628 -0.28650129 0.79308021 0.018584231
-0.018127806 0.069775939 0.053616058 -0.48013395 -0.27262163 0.83385253 0.016748391
-0.085839778 0.099196181 0.026983507 0.82941395 -0.19090916 -0.52500826 0.0046754684
-0.073127195 0.13983162 -0.0073258872 0.3970474 0.19297028 0.89874935 0.055229511
-0.08062771 0.1394258 0.047393691 -0.35969454 0.5587005 0.74759799 0.013403494
-0.058776777 0.088300087 -0.020698708 0.28241912 -0.0015703356 0.95934552 0.0043455209
-0.080889896 0.10470916 0.030390397 0.80112034 0.022193845 -0.59812385 0.049717735
-0.081522837 0.10468744 0.029634023 0.81196553 -0.0070821065 -0.58406329 0.050255142
-0.074726179 0.087805837 -0.014686529 0.57242525 0.026345978 0.8195672 0.010513569
-0.082786724 0.12653032 -0.0044719414 0.54999727 -0.0733575 0.83198965 0.0083530433
-0.088192038 0.094993733 0.023842275 0.92031288 -0.031453129 -0.38997436 0.007746954
-0.028221358 0.07935068 0.045117661 0.74921048 0.24801788 -0.61572629 0.042297669
-0.086158425 0.11773223 0.047820635 -0.45845947 -0.33269787 0.82411426 0.018574629
-0.074856423 0.079060026 0.036439747 -0.58015531 -0.41448763 0.70117015 0.0034890077
-0.085827865 0.10180379 0.025551887 0.84758788 -0.24766396 -0.46947226 0.0059427014
-0.061977267 0.12821387 -0.0081312153 -0.19896337 -0.12305681 0.97229576 0.0052414192
-0.079630025 0.092690073 0.035114411 0.72058254 -0.057958584 -0.69095302 0.0023991945
-0.08070533 0.10201714 0.031681791 0.73601335 -0.14592116 -0.66173828 0.01767143
-0.073508337 0.08743187 0.040440172 -0.53101289 -0.10720101 0.84057796 0.0054461937
-0.018280327 0.092062682 0.054581027 -0.35948384 0.50998628 0.78181028 0.016715854
-0.090784073 0.1174796 0.043988373 0.78238994 0.33311096 -0.52623177 0.027434744
-0.076703802 0.16049589 -0.013563294 0.86462224 -0.42670551 -0.29031095 0.075528726
-0.083798073 0.087053984 0.029560361 0.83921278 0.16809696 -0.51720297 0.0060767387
-0.0852452 0.099215597 0.027822474 0.80980653 -0.18926381 -0.55533743 0.004271117
-0.085297711 0.10183533 0.02642459 0.82833743 -0.24604356 -0.5033831 0.0056189126
-0.084712528 0.10187811 0.027232448 0.81194383 -0.23606823 -0.53402275 0.0056418632
-0.076486178 0.15623087 -0.0079095187 0.9127447 -0.38437629 -0.17749478 0.081734776
-0.088032655 0.13114968 0.045046695 0.81194335 -0.26087546 -0.52220303 0.0071577057
-0.072736405 0.08878506 0.041037064 -0.50475574 -0.051307276 0.86175704 0.0059956787
-0.085060649 0.15126157 0.028890146 0.52387321 -0.77108318 -0.36199054 0.01126079
-0.070842616 0.15307967 -0.041238416 0.78340983 0.5207572 0.39415324 0.14105913
-0.081959561 0.1340961 0.050383192 -0.43273354 0.38914686 0.81366581 0.019045757
-0.082835726 0.13406737 0.049811352 -0.50447911 0.38173053 0.77465898 0.016659087
-0.078942299 0.092714421 0.035849322 -0.70596635 0.066120662 0.70516151 0.0024306695
-0.058076814 0.15766124 0.0036848437 0.58305973 -0.79319775 0.18795639 0.071629658
-0.084113106 0.10190883 0.028034657 0.79445988 -0.22956508 -0.56240165 0.0054589026
-0.071843848 0.09416277 0.041284803 -0.44442233 0.14965978 0.88325059 0.0067143859
-0.084404722 0.10056628 0.028369416 0.789074 -0.22077656 -0.57329118 0.0034631742
-0.084224485 0.10587452 0.025261527 0.88891029 -0.039700013 -0.45702767 0.042345855
-0.028808551 0.083509482 0.045518149 -0.73030674 -0.093953781 0.67785543 0.053345896
-0.089007013 0.14456366 0.031457052 0.89217192 -0.3231295 -0.31608698 0.025764454
-0.071515985 0.086058855 0.041345041 -0.48187387 -0.15414865 0.8625896 0.0050097676
-0.059024446 0.13402835 -0.0064913174 -0.37512451 -0.17724559 0.90988946 0.0051701465
-0.02364701 0.085264228 0.054455981 -0.64580792 0.1531575 0.7480908 0.020762626
-0.069813691 0.08194457 0.041191891 -0.44134411 -0.30719718 0.84316874 0.0045728437
-0.076530591 0.10079144 0.035985123 -0.61863971 0.15433383 0.77089775 0.021742957
-0.075256981 0.094152875 0.039178096 -0.58273524 0.12734634 0.80264562 0.0057804985
-0.076585583 0.16601977 -0.02369233 0.80525476 -0.54649341 -0.27829653 0.080746479
-0.023028687 0.078318648 0.054038934 -0.63253075 -0.27802661 0.72333062 0.017904669
-0.027070476 0.077953957 0.046808518 0.81826144 0.28610843 -0.49995142 0.015334096
-0.028227793 0.082183212 0.046469882 0.7984364 0.13272025 -0.58969939 0.040447146
-0.076334402 0.10215495 0.035751361 -0.61497587 0.078429483 0.78529835 0.044861406
-0.051800638 0.089855745 -0.021957854 0.056367781 0.030906584 0.99797499 0.003172921
-0.050809819 0.089845754 -0.021930879 0.0329777 0.038522623 0.99874055 0.0021707809
-0.047806669 0.089877352 -0.021893395 0.03055984 0.059472971 0.99777132 0.003736716
-0.046808608 0.089885116 -0.021929387 0.044627119 0.064715654 0.9969067 0.0047492771
-0.048812885 0.089847073 -0.021882161 0.022401977 0.0525936 0.99837369 0.00273252
-0.04981336 0.089831188 -0.021900019 0.022243682 0.046271507 0.99869716 0.0021581629
-0.075786464 0.089186333 -0.013886725 0.60965085 -8.4588115e-05 0.79270798 0.0096407793
-0.041866384 0.10423958 -0.020712573 0.041183323 -0.27449268 0.96072525 0.002816543
-0.075926676 0.12227084 -0.0074933465 0.33682466 0.098051727 0.93644923 0.0044390182
-0.083977163 0.12356018 -0.0038295018 0.59025198 0.058351748 0.80523151 0.011930418
-0.077884272 0.12518016 -0.0068763257 0.39089882 0.010456535 0.92038441 0.0040809377
-0.03988903 0.10989291 -0.018860636 0.038886748 -0.41998082 0.90671068 0.0036421227
-0.071822695 0.11070277 -0.0094755795 0.48119363 -0.31690523 0.81751603 0.0082888426
-0.033886354 0.10432431 -0.021264138 0.12933753 -0.32148588 0.9380573 0.0064865928
-0.034891561 0.10432933 -0.021099787 0.11273434 -0.3126038 0.94318402 0.0062531349
-0.036896549 0.10434062 -0.020869538 0.081764311 -0.29360479 0.95242435 0.0048361039
-0.06391786 0.12237906 -0.0088239936 0.027245961 -0.17501631 0.98420703 0.019269612
-0.035899416 0.10434782 -0.02096881 0.09655039 -0.30356768 0.9479115 0.0055233063
-0.037905071 0.10437329 -0.020791084 0.068765923 -0.28574154 0.95584518 0.0040589073
-0.084632479 0.099244893 0.028618939 0.79068375 -0.18733671 -0.58286512 0.0037059146
-0.074836031 0.15636998 -0.0025737614 0.55673647 -0.81440532 -0.17402802 0.089788981
-0.091693401 0.11608873 0.040747017 0.84379202 0.45931906 -0.27789164 0.02703945
-0.076120034 0.080493815 0.036226824 -0.60948634 -0.37642202 0.69774473 0.0041244952
-0.077067204 0.079001397 0.034397587 0.6427716 0.43605652 -0.62992764 0.0042783245
-0.019875877 0.10584198 -0.02254135 0.00549808 -0.38250586 0.92397827 0.004996974
-0.021098001 0.08113265 0.056276429 -0.44738847 -0.1149369 0.8870644 0.02255151
-0.069206171 0.083272986 0.042019848 -0.41922548 -0.25827911 0.87046379 0.0060960432
-0.07360293 0.077687748 0.036637448 -0.55374044 -0.44463158 0.70404267 0.0036076398
-0.087888159 0.14182852 0.037652548 0.82473826 -0.41506734 -0.38459024 0.017422037
-0.089193374 0.13240461 0.041942831 0.88709879 -0.2768833 -0.36932755 0.0091461036
-0.083997361 0.099267982 0.029397627 0.77181357 -0.1858806 -0.60807669 0.003223829
-0.083338678 0.099283941 0.030155068 0.7545464 -0.1833607 -0.63011009 0.0027924872
-0.08266598 0.099311911 0.030889364 0.73874784 -0.18234326 -0.64884967 0.002471817
-0.081971683 0.099335611 0.0316053 0.72388434 -0.18075997 -0.66582781 0.0021426193
-0.081268296 0.099358276 0.032315034 0.70883304 -0.18282035 -0.68129367 0.0019218564
-0.024101388 0.079740651 0.053662021 -0.69800895 -0.21261905 0.68396682 0.017430695
-0.026181303 0.073646426 0.044663224 0.75484687 0.32862017 -0.56898522 0.025412733
-0.07617674 0.10483949 0.035585847 -0.59107327 -0.19852258 0.78463024 0.088844113
-0.079012096 0.080481537 0.033480182 0.69446194 0.39489225 -0.60155857 0.0062210634
-0.085056618 0.10447741 0.0247373 0.8816492 -0.16171663 -0.44374669 0.024487196
-0.08613231 0.14990816 0.030003205 0.60740101 -0.69069737 -0.3938233 0.014066999
-0.084223881 0.13668969 0.046816181 -0.60501832 0.44861588 0.65784299 0.0090316664
-0.074751109 0.1021791 0.037018981 -0.54131144 0.11629412 0.83290702 0.043193154
-0.076505318 0.1632401 -0.018039897 0.8198474 -0.5191974 -0.28469288 0.076839298
-0.070666149 0.15187579 -0.042842578 0.32255277 0.95581108 0.50220633 0.15837726
-0.080536 0.099367164 0.032995649 0.69722688 -0.1795484 -0.69400853 0.0021034151
-0.075634673 0.15631552 -0.0045886212 0.74085325 -0.65356559 -0.18329901 0.09142711
-0.02709738 0.070588596 0.04143516 -0.55833822 -0.30466387 0.77167481 0.051353436
-0.02650556 0.070670798 0.042216107 -0.63869011 -0.30946311 0.70461887 0.041791946
-0.025972473 0.070758767 0.043103702 0.70491457 0.31302631 -0.63727957 0.032667581
-0.025468871 0.070823207 0.044061322 0.75545233 0.31655878 -0.57460159 0.021045359
-0.024999185 0.070796058 0.044963554 0.78681225 0.31748295 -0.5299632 0.01083798
-0.024581097 0.070828959 0.045958403 0.80779815 0.31907922 -0.49570784 0.0021356833
-0.024133043 0.07087785 0.046921741 0.80972409 0.32234925 -0.49037918 0.0015329216
-0.023687752 0.070930682 0.047885463 0.79952204 0.32521802 -0.50520957 0.0034480474
-0.023196165 0.070960306 0.048784293 0.78360307 0.32507566 -0.52953535 0.0047828746
-0.022674952 0.070993438 0.049676437 0.75932705 0.32616675 -0.56315792 0.0070407917
-0.02213555 0.071036518 0.050556123 0.72808897 0.32444748 -0.60414439 0.010978681
-0.021551318 0.071098104 0.051395215 0.68667477 0.3214272 -0.65225083 0.015259267
-0.020898059 0.071146913 0.05215067 -0.63735932 -0.3163439 0.70267266 0.017051708
-0.020162366 0.071139738 0.052831326 -0.58126801 -0.31089535 0.75200915 0.018229287
-0.019345213 0.071162157 0.053423002 -0.52385634 -0.30153075 0.79665518 0.017943971
-0.018447414 0.071179166 0.053917374 -0.46533629 -0.28836867 0.83685589 0.015968651
-0.017508825 0.071215309 0.054322291 -0.41242477 -0.27443361 0.86871219 0.013664087
-0.079806186 0.099384487 0.033677764 -0.6841259 0.18241024 0.70619994 0.0020379163
-0.084644921 0.13932393 0.044327062 0.62439382 -0.49347138 -0.60556912 0.0083407853
-0.079050355 0.099412709 0.034334872 -0.67182875 0.18269253 0.71785802 0.0026811394
-0.08445254 0.12038291 0.04895838 -0.44124615 -0.22600546 0.86854118 0.011792089
-0.022921436 0.081134573 0.055267781 -0.58678752 -0.12590508 0.80001503 0.025253041
-0.078998379 0.10607489 0.032653444 0.74829423 0.30096069 -0.59987193 0.077471703
-0.091325231 0.12689795 0.041454516 0.90994686 -0.25095683 -0.33029908 0.011248169
-0.079561651 0.085969567 0.035268188 0.72484648 0.14756492 -0.67296392 0.0061340942
-0.042863235 0.10559347 -0.020329965 0.040081505 -0.31062719 0.9497261 0.0034935863
-0.087097496 0.11766472 0.047405116 -0.50391942 -0.32855076 0.79887271 0.022240104
-0.065787509 0.088104241 -0.018318266 0.31872541 -0.054817643 0.9462679 0.0020089413
-0.019963315 0.073951453 0.053993426 -0.50979435 -0.31985191 0.79877853 0.018465661
-0.081923448 0.14481589 0.041471854 0.46210137 -0.65025431 -0.60303897 0.006036046
-0.023030968 0.083905496 0.055282738 -0.59294325 0.060468532 0.80311817 0.024816882
-0.047700197 0.16550127 0.0040809433 0.27082598 -0.72103143 -0.6393792 0.077042013
-0.02802244 0.076496236 0.043540966 -0.66154432 -0.30332598 0.68690252 0.051467046
-0.076156743 0.088766336 0.038801502 -0.61806589 -0.052945513 0.78435546 0.0060715894
-0.071188614 0.080562443 0.039765354 -0.48394197 -0.35305125 0.8007288 0.0029136189
-0.083123066 0.0857675 0.030384563 0.83176255 0.19015044 -0.52171218 0.006542895
-0.083460905 0.10193025 0.028800502 0.78108573 -0.21586207 -0.58619934 0.0070168152
-0.070591398 0.086044513 0.041872237 -0.45865917 -0.14865723 0.87610841 0.0055667185
-0.07829719 0.099418983 0.034987085 -0.65760744 0.1829575 0.73086178 0.0038867465
-0.017592991 0.17491633 -0.019885808 0.4516679 0.21001308 0.86739504 0.15971597
-0.022044253 0.085281536 0.055684648 -0.52120095 0.151311 0.84005159 0.022569779
-0.077548213 0.099448226 0.035651404 -0.63985157 0.1911515 0.74439001 0.0046103424
-0.08630991 0.13114525 0.047630467 0.72801113 -0.24229042 -0.64138085 0.008970663
-0.076804221 0.099452376 0.036305863 -0.62065297 0.2021758 0.75759518 0.00472628
-0.070275195 0.15316451 -0.042647522 0.69576716 0.60374415 0.47171938 0.15193613
-0.068452686 0.080515556 0.041319322 -0.39736378 -0.35067976 0.84808064 0.0046694516
-0.076009184 0.099484965 0.036946099 -0.59617788 0.2090649 0.77518868 0.0066657029
-0.022115055 0.18310818 -0.013753362 0.82081074 -0.35879821 0.50560743 0.13321003
-0.082790062 0.10194342 0.029546186 0.7681706 -0.20307274 -0.6075694 0.0082634129
-0.082099907 0.10197239 0.030261386 0.75717682 -0.18532033 -0.62690657 0.0099695064
-0.029621251 0.077711582 0.042337369 -0.49025366 -0.25974104 0.83225799 0.063177526
-0.091971457 0.12417534 0.042199649 0.91117126 -0.14811409 -0.38473031 0.01581447
-0.092346802 0.12419887 0.041181251 0.93702137 -0.15599664 -0.31277549 0.015617768
-0.025738155 0.07364843 0.045614194 0.78728133 0.33611831 -0.51755333 0.011565836
-0.08830528 0.13249622 0.043836318 0.83774835 -0.28574085 -0.46537158 0.007797874
-0.02780013 0.086320713 0.047289047 0.77611732 -0.090175927 -0.62485462 0.034975357
-0.025685471 0.083798654 0.052286346 0.79098719 -0.041600309 -0.61052632 0.016303822
-0.086611196 0.1284446 0.048001312 0.71275437 -0.13837931 -0.68776226 0.012785289
-0.068884499 0.081919663 0.041702773 -0.41028929 -0.30657673 0.85892564 0.0053950106
-0.077861719 0.1771691 -0.049383137 0.25637981 -0.87958807 -0.55009282 0.16668025
-0.025436295 0.078134 0.050788552 0.79125834 0.28642493 -0.54042 0.0092902444
-0.025914405 0.078077346 0.049849793 0.81511402 0.28513888 -0.50447685 0.0073237037
-0.026345612 0.078080185 0.048919007 0.83176523 0.28149408 -0.47870302 0.0058284956
-0.026706256 0.077975146 0.047821268 0.83200777 0.2850481 -0.47649631 0.007386927
-0.027476486 0.082248084 0.04852435 0.85865456 0.091192961 -0.50482631 0.012799374
-0.072025612 0.077785015 0.037861012 -0.50867909 -0.43297485 0.74416733 0.0032297927
-0.088035181 0.14859338 0.029084357 0.73404676 -0.56698287 -0.37581947 0.020691153
-0.040772233 0.089981459 -0.022770228 0.17979297 0.068508402 0.98158449 0.0095277131
-0.041780956 0.089956939 -0.022556713 0.15912455 0.072839826 0.98480499 0.0089004552
-0.042920329 0.089899242 -0.022356115 0.13171327 0.076851621 0.98837513 0.0086069666
-0.065934166 0.12530906 -0.0088886134 -0.030523388 -0.056111287 0.99801338 0.0062583406
-0.053884178 0.10978029 -0.018048653 0.15208589 -0.35351175 0.92302233 0.0037562607
0.00011104154 0.11165377 -0.020062231 -0.048240203 -0.4087657 0.91138005 0.013515472
-0.072860934 0.1092681 -0.0095445234 0.50492924 -0.33743989 0.79459292 0.0054341061
-0.08480332 0.12208772 -0.0030726385 0.62402803 0.1266121 0.77120727 0.012470764
-0.031834211 0.10426726 -0.0217376 0.15444134 -0.33421662 0.92978692 0.006338066
-0.032858174 0.1042912 -0.021489767 0.14307635 -0.32709244 0.93413413 0.0062146261
-0.055874582 0.10975558 -0.017669754 0.21049738 -0.34775364 0.91366935 0.0037585422
-0.027827809 0.10431601 -0.02269299 0.14869756 -0.34402889 0.92711252 0.0066749277
-0.026841985 0.10434746 -0.022874745 0.13521963 -0.3416588 0.93006712 0.0069751814
-0.055829752 0.056886964 0.011095832 -0.64497876 -0.70434576 0.30644083 0.083790272
-0.022869179 0.1044158 -0.02313113 0.044722293 -0.34227997 0.93856692 0.0054420871
-0.075057328 0.11348855 -0.00641884 0.52822059 -0.088566981 0.84449404 0.0264122
-0.071820192 0.11942744 -0.0081489654 0.25829309 0.026055055 0.96577901 0.013051052
-0.044867616 0.10559512 -0.020268427 0.036594611 -0.31845316 0.94730997 0.0035624029
0.0011881026 0.090943955 -0.033948854 -0.27231622 -0.3749128 0.88621491 0.011086895
0.0022156157 0.090953186 -0.033645682 -0.28699991 -0.36925322 0.88391089 0.010754102
-0.075201295 0.099518538 0.037578233 -0.56868201 0.22048569 0.79252678 0.0075515211
-0.019401424 0.075344585 0.054855052 -0.43457037 -0.30483589 0.84756947 0.015568927
-0.086135082 0.093788974 0.027458569 0.8418563 0.011350918 -0.53964722 0.0050736498
-0.022687916 0.089325413 0.053385895 -0.59715158 0.39089337 0.70063013 0.01322379
-0.024481501 0.082504578 0.053958688 -0.71134955 -0.041876219 0.70181113 0.021266878
-0.028961863 0.080711186 0.044355392 -0.67961341 -0.2120768 0.70277709 0.054600593
-0.07579238 0.087734312 -0.013892096 0.62467164 0.046949394 0.77954537 0.01038132
-0.079579838 0.094045818 0.035024632 0.71074349 -0.089913748 -0.69768566 0.0024549428
-0.028299568 0.086283237 0.046360865 0.73298007 -0.048012584 -0.67940509 0.04534122
-0.084148124 0.085624501 0.028497811 0.85576218 0.23230231 -0.46229738 0.0069616791
-0.084217802 0.14341307 0.040958289 0.58808059 -0.58323741 -0.56050932 0.0072359615
-0.088574804 0.13782085 0.039775856 0.87596011 -0.32107374 -0.36034721 0.013954528
-0.071590483 0.079113252 0.038832933 -0.49544469 -0.39497465 0.77364844 0.002873979
-0.081383176 0.10199404 0.030957017 0.75028414 -0.15915263 -0.64269549 0.017305838
-0.023044722 0.082526006 0.055349752 -0.59189379 -0.037115782 0.80546725 0.026098821
-0.019182967 0.092086881 0.054079704 -0.40936112 0.52402574 0.74709272 0.014793882
-0.088597439 0.094946072 0.022814784 0.93968683 -0.029201532 -0.34080023 0.0079497881
-0.084509008 0.12713814 0.050178118 -0.57461149 0.0058641415 0.81861687 0.018443024
-0.017611533 0.098810695 0.045485485 -0.21945953 0.63853955 0.73785549 0.035219066
-0.061766226 0.1393628 -0.0065503893 -0.46813387 -0.071100116 0.88097721 0.048367746
-0.078308977 0.080440626 0.034177642 0.6727652 0.39237967 -0.62730038 0.0055271452
-0.085751303 0.13387823 0.046996094 0.7043258 -0.34073356 -0.62277067 0.0082926909
-0.083485298 0.13669014 0.047499318 -0.55611742 0.46303537 0.69017696 0.010009802
-0.024818933 0.091731124 0.048362248 -0.61417228 0.44754666 0.65130484 0.031002162
-0.028674226 0.082146659 0.045467693 0.74525845 0.14919363 -0.65130794 0.050266914
-0.074778885 0.092119209 -0.014377938 0.53974909 -0.091387063 0.83686763 0.0081731211
-0.07439559 0.099529326 0.038181446 -0.53619027 0.23326094 0.81130856 0.0079376427
-0.027466519 0.072018333 0.0417706 -0.55512482 -0.3085677 0.77267784 0.048513871
-0.026857384 0.072104439 0.04253076 -0.63744998 -0.3156358 0.7030043 0.044285495
-0.026320506 0.072189607 0.043423373 0.70512187 0.3199479 -0.63343138 0.034655709
-0.025825344 0.072213121 0.044353254 0.75608122 0.32412675 -0.56931978 0.021316636
-0.025360264 0.072224058 0.045288399 0.78829515 0.32649863 -0.52200687 0.010276818
-0.02493432 0.072262578 0.046270773 0.80403095 0.32948118 -0.49508446 0.003761447
-0.024513209 0.072261922 0.04721272 0.80823314 0.33310479 -0.48561448 0.0020001421
-0.024060361 0.072311111 0.048175801 0.79685879 0.3352589 -0.50273442 0.0042394525
-0.023561966 0.072382808 0.049111065 0.77841556 0.3355312 -0.53073347 0.0061741536
-0.023037627 0.072419077 0.049997073 0.75381684 0.33666939 -0.56437379 0.0086006308
-0.022487031 0.072421037 0.050845005 0.72272193 0.33447668 -0.6050756 0.012054684
-0.021884903 0.072489202 0.051679134 0.68147796 0.33185327 -0.65246946 0.015346397
-0.021218387 0.072541013 0.052431393 -0.63158512 -0.32768878 0.7027247 0.017585004
-0.020469116 0.072536141 0.053106088 -0.57576901 -0.32261398 0.75139266 0.019340592
-0.019644724 0.07256519 0.053690497 -0.51725644 -0.31367713 0.796363 0.018667186
-0.018780241 0.072620153 0.054183528 -0.45856875 -0.30217457 0.83582515 0.016444182
-0.07360401 0.09950158 0.038761921 -0.50229907 0.24760102 0.82856482 0.0073563415
-0.072739355 0.099512376 0.03930641 -0.46485779 0.25821629 0.84697354 0.0070755817
-0.05990864 0.11113214 -0.015869383 0.33652824 -0.39776236 0.85356998 0.0041275504
-0.042776808 0.034719795 -0.026092637 0.61526144 0.64496863 0.51180917 0.1149281
-0.043519683 0.035285626 -0.025275137 0.68954504 0.59809875 0.50806969 0.10685074
-0.04423796 0.035170134 -0.024304053 0.7339164 0.52533805 0.45594436 0.1158718
-0.044667691 0.03522544 -0.023316275 0.76003176 0.52471441 0.40811461 0.11595948
-0.045153085 0.035349872 -0.02225283 0.77491111 0.5483216 0.3719261 0.11597008
-0.045418326 0.035476953 -0.0211714 0.78337002 0.63029736 0.32352614 0.12014228
-0.0458018 0.035477724 -0.020212851 0.79490006 0.58426541 0.30543941 0.11620316
-0.046036199 0.035501584 -0.019197864 0.7867915 0.62874132 0.29790887 0.13131678
-0.046121474 0.035619825 -0.018042501 0.78052682 0.69053519 0.33012506 0.13267575
-0.046522282 0.035579186 -0.017185004 0.76038474 0.57633913 0.35907212 0.15130429
-0.046824452 0.035738703 -0.016026314 0.72519845 0.59141761 0.42635256 0.15733507
-0.04721782 0.035705913 -0.015105306 0.66053462 0.64759046 0.48012105 0.17523862
-0.04766608 0.035639729 -0.014252911 0.60126215 0.63446033 0.53373605 0.19031706
-0.048140686 0.035479378 -0.013477495 0.53837049 0.60239083 0.59509718 0.18892522
-0.085232578 0.12795475 -0.0025119851 0.67133272 -0.14496759 0.72689062 0.011054112
-0.086161263 0.12798029 -0.001528149 0.72152293 -0.1466257 0.67680556 0.010857164
-0.088514954 0.12811244 0.0021817675 0.8404839 -0.13351066 0.52514428 0.0041322522
-0.093457684 0.12824616 0.015242157 0.96550244 -0.22194645 0.13618594 0.0046192161
-0.093262173 0.12830904 0.025260029 0.95492399 -0.24723475 -0.16471699 0.006938898
-0.092032202 0.12829326 0.030240919 0.96309853 -0.23653641 -0.12845908 0.0075879865
0.0038480046 0.10644699 -0.020854842 -0.14417468 -0.24280319 0.9593361 0.0033055183
0.03097323 0.11647206 -0.0014798543 -0.66029131 -0.67237526 0.33456808 0.0041528102
-0.010886046 0.034955893 -0.025079563 0.12718335 -0.71313995 -0.6990146 0.089739025
-0.012841075 0.096667334 -0.030505154 0.091355763 -0.84181803 0.53217053 0.0077727241
0.028582318 0.11705015 -0.004139584 -0.58830994 -0.68073618 0.43647557 0.0037099435
0.0049754302 0.10054477 -0.022531917 -0.14949271 -0.55366462 0.81928152 0.021315953
-0.070583798 0.038237844 -0.0005646543 0.92056769 -0.0064559565 0.39671406 0.10497039
-0.093167424 0.1296414 0.023235982 0.9464246 -0.30039105 -0.11859348 0.0051123272
-0.092986308 0.12965845 0.024244178 0.94292152 -0.30090922 -0.14271906 0.0049188202
-0.092812315 0.12423364 0.038263455 0.97857869 -0.15637659 -0.13432647 0.010921427
-0.041927747 0.036422368 -0.027082063 0.66897762 0.34820011 0.68340927 0.1106841
-0.042795628 0.036582962 -0.025972655 0.73770791 0.32351291 0.62967712 0.10194207
-0.043521401 0.036607437 -0.025096644 0.77807844 0.31415835 0.57385302 0.10774377
-0.044044793 0.036595229 -0.024300274 0.81086612 0.33773366 0.52020496 0.11064498
-0.044618998 0.036590736 -0.023404954 0.83450758 0.32519412 0.47186199 0.11693632
-0.045087237 0.036714368 -0.022237454 0.86579871 0.31995174 0.42562234 0.11715292
-0.045472354 0.036820166 -0.02119885 0.89368397 0.29180482 0.37221682 0.11825193
-0.045779642 0.036848806 -0.02021737 0.90283412 0.28770375 0.35616174 0.1055423
-0.045847129 0.036861781 -0.019176167 0.9077369 0.30219117 0.35428536 0.11134072
-0.046230052 0.036883682 -0.018242234 0.89253831 0.30173242 0.37310752 0.12210591
-0.04636272 0.036950443 -0.017113352 0.88193661 0.30016214 0.4104757 0.13643341
-0.046776928 0.036974356 -0.016177868 0.83890009 0.30438638 0.47734904 0.14666323
-0.047115561 0.037026625 -0.015130665 0.78947854 0.29807171 0.55814123 0.16215442
-0.047719799 0.036979396 -0.014406677 0.71584499 0.34096816 0.62455267 0.18134977
-0.048495024 0.036573447 -0.013700273 0.61094916 0.4106912 0.68180293 0.20027462
-0.080574855 0.076247476 0.025896674 0.77040231 0.5546611 -0.31439668 0.0029897331
