# .PCD v0.7 - Point Cloud Data file format
VERSION 0.7
FIELDS x y z normal_x normal_y normal_z curvature
SIZE 4 4 4 4 4 4 4
TYPE F F F F F F F
COUNT 1 1 1 1 1 1 1
WIDTH 578
HEIGHT 1
VIEWPOINT 0 0 0 1 0 0 0
POINTS 578
DATA ascii
0.028482752 0.05348571 0.039223079 0.5660001 -0.38663423 0.7281943 0.0034555858
0.029321413 0.053547394 0.038681984 0.57500219 -0.38908893 0.71978498 0.0034281681
0.030116552 0.053618874 0.038113091 0.58306009 -0.38960108 0.71300989 0.0034396709
0.030875606 0.053665932 0.037469782 0.58717453 -0.38637957 0.71132821 0.004962625
0.031590551 0.053623322 0.036733232 0.58679438 -0.37984374 0.71526301 0.0087054241
0.032280628 0.053599849 0.035962865 0.57747364 -0.37217611 0.72706401 0.014825555
0.032974277 0.053519409 0.035175864 0.56232184 -0.35933498 0.74517906 0.020866921
0.033668637 0.053493209 0.034419835 0.53167063 -0.33805221 0.77703273 0.030714333
0.034416512 0.053376637 0.033744752 0.49357861 -0.3150284 0.81081194 0.037598494
0.035188921 0.053250365 0.033152401 0.44584769 -0.28438076 0.84884363 0.043402303
0.036000885 0.053157788 0.032706797 0.40419349 -0.25934675 0.87726909 0.048841659
0.020510757 0.11917192 0.033311531 0.3646757 0.60512334 0.70769948 0.0076445695
0.023767909 0.098135047 0.045043346 0.42527476 0.36915338 0.82640547 0.006460093
0.043259371 0.10011077 0.0071668071 0.93458641 0.35044715 -0.061308816 0.0030276456
0.043441437 0.090236872 -0.0038367987 0.9237898 0.15277681 -0.35116628 0.0059563965
-0.056996096 0.11991268 0.038642079 0.59371263 -0.19088024 0.78201437 0.022126015
-0.055698015 0.11843646 0.036909081 0.53274262 -0.12848727 0.83716393 0.037567493
0.045630231 0.08619234 0.0041752961 0.98786688 0.05907901 -0.14375664 0.0026220467
-0.054319315 0.14464836 0.027334915 0.89843756 0.13810948 0.41701281 0.011704036
0.046466086 0.053984817 0.031758461 0.31538597 -0.12933549 0.94123328 0.031896822
0.0474068 0.053984769 0.03147541 0.35956016 -0.15713792 0.92089599 0.033253387
0.048299503 0.053958047 0.031071119 0.40558225 -0.18451858 0.89555049 0.032427244
0.049154524 0.053948794 0.030558769 0.45560342 -0.21603981 0.86383933 0.029341951
0.049997047 0.053945944 0.030004 0.50501674 -0.24875836 0.82720977 0.025722999
0.050807294 0.053959858 0.029386045 0.54672432 -0.27407196 0.79170036 0.022079676
0.051583391 0.053986348 0.028740205 0.58385926 -0.29600284 0.75628221 0.018375259
0.052333649 0.054027013 0.028082768 0.6169461 -0.31574443 0.72134072 0.01518335
0.053056482 0.053993378 0.027364716 0.64799058 -0.33427373 0.68450224 0.012850957
0.053770717 0.054017525 0.026663007 0.67627478 -0.34715706 0.64982587 0.011876146
0.054462932 0.053963557 0.025875138 0.70582891 -0.36117071 0.60947698 0.011174651
0.055135872 0.053916998 0.025061863 0.73438495 -0.37325731 0.56713212 0.011498103
0.05576599 0.053895589 0.024212891 0.76280826 -0.38233766 0.52176303 0.011335629
0.056345224 0.053895727 0.023332266 0.7899484 -0.38813016 0.47472879 0.011196618
0.056871261 0.053920783 0.022431863 0.8150844 -0.3912217 0.42734993 0.011290028
0.057403971 0.053854447 0.021258753 0.84103155 -0.39828643 0.36620441 0.011302561
-0.032080099 0.16109569 -0.00089015201 0.55862647 0.21102595 0.80445653 0.10503986
-0.038379543 0.16122599 0.0025027001 0.48058358 0.25045243 0.8405301 0.026674127
-0.060844019 0.11514666 0.038319867 0.49359336 -0.26991963 0.82725167 0.055183001
-0.069279306 0.14393146 0.043827921 0.42842636 0.47280163 0.77011079 0.029795434
0.022558583 0.099441439 0.045050133 0.39749399 0.40418839 0.82381833 0.0064702458
-0.056083359 0.1483233 0.030917238 0.80840987 0.24612799 0.53543115 0.029350189
0.020982472 0.1179238 0.034010794 0.35918602 0.57218677 0.73732495 0.0068399603
-0.092223883 0.11860318 0.028326882 0.92364603 0.37681538 -0.070944406 0.037110236
0.044569291 0.095979638 0.01116058 0.96594894 0.25658056 0.033630375 0.0023361635
-0.053924337 0.048723556 0.036757994 0.38103333 -0.85824674 -0.35068914 0.054921467
0.025104916 0.1181906 0.031160148 -0.49349955 -0.62885994 -0.60086888 0.0067805597
-0.055155277 0.11691717 0.035917498 0.4646022 -0.024109695 0.88523269 0.054271121
-0.013885387 0.16395558 -0.015296184 0.17052171 0.80694538 0.64824271 0.12349509
-0.015742917 0.16364734 -0.014636643 0.19193332 0.76529562 0.66863692 0.12857117
-0.042097814 0.15061276 0.0055862782 0.63786077 -0.42225805 0.64465028 0.067630112
0.012184762 0.11660931 0.037316781 0.21243864 0.45146745 0.86666495 0.0037132783
-0.059942175 0.15091081 0.034547314 0.54548061 0.51282889 0.66299212 0.043959957
-0.033432059 0.16265126 -0.0011714372 0.56327814 0.26855937 0.78289032 0.056910574
-0.089505099 0.098326445 0.014407691 0.99108332 -0.13234726 0.015451681 0.0061993022
0.040823422 0.093974113 0.029289862 0.86824614 0.21931623 0.44502905 0.0020585021
-0.012039496 0.17171337 -0.023374194 0.65238988 0.45004877 0.61402494 0.096866503
-0.070752308 0.13971777 0.046972651 0.43995923 0.41005778 0.79923171 0.027016021
-0.039285738 0.15657097 0.0044006454 0.51321489 0.017003659 0.85832685 0.040848013
-0.03127246 0.1610705 -0.0014531857 0.5524413 0.20609149 0.80890256 0.11507024
-0.0076222033 0.10383952 0.043987088 -0.063197196 0.46373075 0.88405943 0.033810806
-0.023905512 0.17738703 -0.016184872 0.72394371 -0.08447662 0.68480885 0.15994984
-0.068379387 0.12424733 0.052100085 0.49004301 0.1587823 0.8572042 0.031633098
-0.071831182 0.15804335 -0.0038682953 0.10038173 -0.93405032 -0.35338622 0.10124863
-0.016506894 0.18134247 -0.022947798 0.77072448 0.062281016 0.63816965 0.09985733
0.039152943 0.1083842 0.011164488 0.85616362 0.51659387 0.011240958 0.0015510846
-0.046070453 0.12665385 0.024477307 0.69148242 0.51240259 0.50936228 0.053180799
-0.064260304 0.11411233 0.040336799 0.55972832 -0.46323505 0.69186687 0.079532593
-0.054451894 0.12696035 0.037019264 0.65038246 0.20556739 0.7312783 0.0097885272
-0.025632992 0.18039283 -0.013145831 0.81406027 -0.34175271 0.55322897 0.1444416
0.034371376 0.10205188 0.034122992 0.70142186 0.38153449 0.60205996 0.0024506759
-0.022882095 0.15985976 -0.0071861595 0.57982677 0.20853113 0.80154437 0.15843894
-0.054595303 0.15087265 0.026583839 0.83153826 0.44063303 0.33821192 0.036905743
0.034453478 0.092907265 0.039441094 0.69527239 0.21710372 0.68522346 0.006967803
-0.053699359 0.12697229 0.036310956 0.6733104 0.20153376 0.71136642 0.0094110426
-0.04882073 0.1550014 0.010007843 0.44814819 0.34785435 0.82441312 0.057411704
-0.028821275 0.16680804 -0.0072198696 0.90292519 0.13624549 0.45033434 0.24414289
-0.01916392 0.16682042 -0.016307807 0.3743372 0.49718377 0.78278917 0.14555639
-0.0048589837 0.10382093 0.044038933 -0.0077097188 0.47824636 0.87828994 0.038858403
-0.012983779 0.16862573 -0.020265326 0.50453806 0.54384226 0.68004578 0.11438168
0.0069963713 0.11355718 0.03994092 0.20397064 0.3739922 0.90483224 0.0049205739
-0.043249574 0.14917161 0.0056825536 0.66371876 -0.50886828 0.54864281 0.068724439
-0.064709574 0.09383963 -0.017946973 0.34657395 -0.11601672 0.93082863 0.0018229621
-0.047348421 0.13479666 0.012012601 0.87963802 0.47596496 -0.0048031355 0.018273439
-0.090565734 0.13920037 0.016194232 0.9850837 -0.066131733 0.15915535 0.024459295
-0.01840217 0.18453819 -0.020436604 0.81401843 -0.25165331 0.59290862 0.11639143
0.038112007 0.1045782 0.027244411 0.82514131 0.38815629 0.41047058 0.0045226309
-0.031826291 0.17237517 -0.0058216816 0.52369875 0.29707277 0.79937142 0.14573655
-0.067811191 0.12847833 0.04940369 0.6218363 0.32545158 0.71248591 0.013886397
-0.05502563 0.1227073 0.038042683 0.64109313 -0.036564235 0.76663905 0.01393937
0.01052035 0.055077884 0.051750194 0.39631838 -0.2915847 0.87060088 0.0076591522
0.011403622 0.055085972 0.051298965 0.41184661 -0.29183027 0.86328298 0.0076911012
0.01224204 0.055026963 0.05081683 0.42337272 -0.29882625 0.85528868 0.0078152847
0.013075594 0.054921672 0.050328568 0.43150103 -0.30809653 0.84792864 0.0082660066
0.013922851 0.054850094 0.049855474 0.43817511 -0.31656441 0.84136468 0.0086918231
0.014782156 0.054768782 0.049380615 0.4450298 -0.32781631 0.83347124 0.0092155691
0.015668178 0.054728366 0.048923071 0.45177543 -0.33834037 0.82564467 0.0096329013
0.016595187 0.054778419 0.048484404 0.46232921 -0.34255156 0.8179549 0.0096640093
0.017558234 0.054959685 0.048071373 0.47249669 -0.34385321 0.81164259 0.010153043
0.018520091 0.05514174 0.047671594 0.48268169 -0.34255457 0.80610961 0.010288653
0.019427542 0.055191956 0.047232077 0.48938909 -0.34525084 0.80088586 0.01034767
0.020300712 0.055217929 0.046744231 0.49948153 -0.35013869 0.79249579 0.010020118
0.021100167 0.055139337 0.04615242 0.5104745 -0.35026449 0.78532612 0.0091036549
0.021891672 0.055111758 0.045555748 0.5225305 -0.35441962 0.77549136 0.0085170772
0.022640955 0.055007372 0.044878487 0.53394145 -0.36030781 0.7650103 0.0078245578
0.023377147 0.054963008 0.044200972 0.54378736 -0.36411703 0.75627524 0.0072125038
0.024103714 0.05488006 0.043474074 0.55158931 -0.36789557 0.74878496 0.006475755
0.024845546 0.054893766 0.04278997 0.55632257 -0.3689217 0.74471712 0.0058473563
0.025596496 0.054890331 0.042104337 0.55920601 -0.36803332 0.74291635 0.0051104114
0.026400443 0.054963067 0.041520771 0.55859715 -0.3677212 0.7435109 0.0046230899
0.02721403 0.054973431 0.040941428 0.55763513 -0.36903498 0.74356818 0.0040089623
0.02804981 0.054979447 0.040385071 0.55936503 -0.36975887 0.74192852 0.0036186953
0.028889718 0.054976244 0.039838228 0.56442982 -0.37243062 0.73675269 0.0034420011
0.029717607 0.05502497 0.039294418 0.57433367 -0.37456936 0.72796875 0.0033641439
0.030524157 0.05503824 0.03871683 0.58714652 -0.3764163 0.71670634 0.0034527869
0.03127531 0.055034608 0.038049072 0.59611446 -0.37396991 0.71053034 0.0037855413
0.031994674 0.055054057 0.037339609 0.59954846 -0.36586675 0.71188033 0.0067316797
0.03267898 0.055041861 0.036565289 0.5974322 -0.3577131 0.71807086 0.012216694
0.03336329 0.05502205 0.035792638 0.59112716 -0.34366345 0.73021835 0.018520128
0.034040466 0.054951094 0.034982346 0.57127434 -0.32184964 0.7553466 0.026900873
0.03473153 0.054875623 0.034210574 0.53592986 -0.29372019 0.79156333 0.036650285
0.035472341 0.054775991 0.033534639 0.49336994 -0.26158321 0.82963812 0.043965109
0.036233474 0.054673839 0.032939907 0.44821501 -0.22624002 0.86486626 0.049607065
0.037031665 0.054609515 0.032503992 0.40561891 -0.19419247 0.89331132 0.05314726
0.030260416 0.11267824 0.031658377 0.61613309 0.51742768 0.59384406 0.0055060145
-0.056179117 0.11988367 0.038046684 0.58403671 -0.16908957 0.79427779 0.022532305
0.045430157 0.090405181 0.013163617 0.98865372 0.13819008 0.059003621 0.0010124388
-0.057809386 0.1199183 0.039240051 0.60988814 -0.210152 0.76434237 0.02364164
-0.058591653 0.11984024 0.039828457 0.62807506 -0.22963727 0.74368948 0.026105544
0.045626283 0.086203463 0.016174557 0.99076134 0.099079154 0.092609704 0.00075213396
0.028795373 0.11267599 0.03305538 0.55950314 0.51300138 0.65100479 0.0061503919
-0.067845933 0.13545674 0.045844477 0.69198257 0.28190681 0.66483802 0.012937053
0.047520544 0.055385992 0.031564232 0.33002478 -0.066830255 0.94306594 0.032472227
0.048433248 0.05537679 0.031260453 0.37192354 -0.089970469 0.9242186 0.033489764
0.049310084 0.055340875 0.030833358 0.42313096 -0.12240109 0.89796358 0.033295806
0.050188001 0.055356167 0.030309319 0.4759202 -0.15436681 0.86607295 0.029683497
0.051036283 0.055383407 0.02973339 0.52592129 -0.18628938 0.83029079 0.024485808
0.051828753 0.055392154 0.029117504 0.56654376 -0.21102813 0.79685426 0.021431349
0.052608781 0.055447988 0.028495975 0.60737598 -0.23517512 0.75984895 0.01825521
0.053349156 0.055414587 0.027807653 0.64345503 -0.25575957 0.72227204 0.015443727
0.054075636 0.055391598 0.027082179 0.67741245 -0.2742416 0.68338794 0.013574818
0.054780915 0.055374388 0.026340306 0.70902961 -0.2878277 0.64440477 0.012963722
0.055459835 0.055328876 0.025537726 0.7403456 -0.30166557 0.60134411 0.012606001
0.056115687 0.055271722 0.024654934 0.77235687 -0.31415468 0.55246806 0.012447023
0.056690641 0.055293676 0.023813119 0.80100077 -0.31992507 0.50619203 0.012229088
0.057233717 0.055270799 0.022859119 0.82894516 -0.32706329 0.45385301 0.011726152
0.057720631 0.055267464 0.021883139 0.85374284 -0.33105409 0.40193763 0.011414745
0.039841563 0.096647069 0.029699059 0.84601909 0.27124172 0.45899892 0.0022578207
0.039290473 0.096679442 0.030655114 0.83214951 0.27577385 0.48112306 0.0022855457
-0.037599947 0.15791577 0.0032342344 0.49658254 0.090490878 0.86326712 0.042940009
0.013574258 0.12181032 0.033815566 0.24746768 0.63100952 0.73526204 0.0071938513
0.018990567 0.11520162 0.036348298 0.27475083 0.49242628 0.8258779 0.0038430227
-0.093810238 0.12826949 0.018243169 0.97192097 -0.23232891 0.03892808 0.0067559052
-0.022023145 0.16665167 -0.015290194 0.43127641 0.44248679 0.78897071 0.17488243
-0.015848193 0.18124132 -0.02367615 0.76876521 0.082911514 0.63964683 0.097874425
0.045639291 0.087605506 0.014171426 0.99211872 0.10645486 0.066125803 0.00063486089
0.043795776 0.095929824 0.019157721 0.95015574 0.26328668 0.16712332 0.0026441247
-0.07485275 0.066253468 0.014527955 -0.67226374 -0.73570305 0.082745597 0.0033031076
-0.016638312 0.1635415 -0.014339815 0.18681817 0.74969399 0.67370862 0.13242359
-0.030751459 0.16071826 -0.012006162 -0.081136867 0.56796652 0.81906807 0.12154785
-0.014284481 0.17011598 -0.020457264 0.53583366 0.48055789 0.6959303 0.11366124
0.033108816 0.11013076 0.030360829 0.70604873 0.46506417 0.53407806 0.0043731574
-0.055128742 0.14671676 0.029167442 0.86997527 0.15308127 0.46930602 0.015931007
0.011112542 0.12043693 0.035521269 0.20559709 0.56642157 0.79806453 0.00564114
-0.038371462 0.15355377 0.0040011271 0.59065419 -0.30037397 0.74994665 0.083808541
-0.062655002 0.14828718 0.037604459 0.52486885 0.37359437 0.7651633 0.041659389
-0.038378049 0.15656322 0.0039735823 0.52389175 -0.015377831 0.8524186 0.050569531
-0.051040757 0.12113471 0.033247486 0.66418481 0.12141606 0.73779184 0.037799153
-0.016674999 0.16210167 -0.012647868 0.060328513 0.88081908 0.59979844 0.13692196
-0.028398974 0.16331553 -0.0070425374 0.72787207 0.35932213 0.58584172 0.19517793
-0.03714871 0.16420075 0.00070219644 0.50476873 0.30070111 0.81033933 0.038319662
-0.049703751 0.12103985 0.031646498 0.62478828 0.24596268 0.74104154 0.051046189
-0.056851074 0.14972179 0.031820487 0.74352568 0.35975787 0.56373757 0.038986251
-0.023729371 0.17894992 -0.015854556 0.75159937 -0.16477257 0.64148623 0.15028204
-0.0147865 0.17806733 -0.023985567 0.73335177 0.23490737 0.63832039 0.094106078
0.043643191 0.095912457 0.020148661 0.94545591 0.26398444 0.19097455 0.0029263664
-0.024973406 0.1804895 -0.013946407 0.79735088 -0.31869584 0.56083816 0.14840411
-0.052853666 0.12550683 0.035822254 0.70519352 0.12363158 0.69816333 0.009843572
-0.026424276 0.15953954 -0.0015783805 0.5859679 -0.027567448 0.81961244 0.13789466
0.027889201 0.098271564 0.042236406 0.52918935 0.38634905 0.75547254 0.0030607115
0.032190062 0.092945293 0.041411396 0.62816966 0.22117953 0.7460134 0.006186828
-0.065652952 0.1367991 0.042038128 0.75847495 0.21712112 0.61483902 0.0074703782
-0.063872248 0.13680021 0.039121676 0.73649329 0.20043166 0.64607054 0.011086543
-0.033553142 0.16731566 -0.0030284156 0.55768716 0.36861157 0.75292844 0.14645988
-0.032374587 0.16694322 -0.0049491087 0.60120463 0.37581521 0.71036988 0.21780206
-0.046649426 0.1265993 0.025547884 0.72372115 0.45100924 0.52248931 0.047208931
-0.074861899 0.17970715 -0.052582212 0.10089494 -1.1236378 -0.50297958 0.14181589
0.023540245 0.11805539 0.032456432 0.43769151 0.60677594 0.66358566 0.0072593205
-0.048510257 0.12957089 0.028194834 0.81738877 0.33162487 0.47119078 0.0083235726
-0.051601917 0.12261054 0.034218244 0.70765328 0.062832907 0.70419925 0.019972466
-0.048050672 0.12950608 0.027170634 0.81937659 0.3532652 0.45190123 0.011579515
-0.058862705 0.1439039 0.034086421 0.72583318 0.049234666 0.68641353 0.0098570902
-0.025313655 0.17057244 -0.015135018 0.66744828 0.20673506 0.71649861 0.22124517
-0.061920427 0.13825861 0.036510695 0.69670135 0.15946114 0.69945937 0.014049411
-0.050997809 0.12688239 0.033287682 0.75941867 0.19297139 0.62133771 0.0072572455
-0.049838625 0.12680222 0.03158867 0.78234768 0.21225978 0.58567822 0.0087299254
-0.04929309 0.12676062 0.030670183 0.78872949 0.23181233 0.5698033 0.012053203
-0.04712671 0.1294392 0.024920823 0.80485737 0.41967583 0.42026603 0.022177275
0.010677481 0.056469221 0.051974345 0.40072533 -0.25838614 0.87904388 0.0063761901
0.011556922 0.05647688 0.051519006 0.41450933 -0.25852409 0.87257934 0.0062611774
0.01240434 0.056421634 0.051051535 0.4236151 -0.26177257 0.86721343 0.006342201
0.013257797 0.056358557 0.050586399 0.43086985 -0.26650912 0.86217684 0.0065626479
0.014119128 0.056285158 0.050140604 0.43669343 -0.27132311 0.85773432 0.0072429855
0.01498088 0.056176919 0.049692743 0.44205549 -0.27874234 0.85258394 0.007831404
0.015892521 0.056173697 0.049264204 0.45038065 -0.2823002 0.84704614 0.0081598209
0.016843941 0.056250799 0.048851747 0.46241596 -0.28590396 0.83939105 0.0085781496
0.017813493 0.056402106 0.048447166 0.47368068 -0.28472289 0.83357626 0.0088446429
0.018752677 0.056524489 0.048034068 0.48396578 -0.28649899 0.8270182 0.0094800107
0.019677619 0.056571066 0.047606226 0.4915823 -0.28956312 0.82135844 0.0100292
0.020565113 0.05658314 0.047134731 0.50257379 -0.29372904 0.81315488 0.010317288
0.021405084 0.056532577 0.0466142 0.51511538 -0.3015371 0.80242848 0.010513269
0.022215979 0.056457672 0.046036273 0.52779466 -0.31045493 0.79077488 0.010594809
0.022987254 0.05639717 0.04540509 0.54051012 -0.31462249 0.78042203 0.010328059
0.023737494 0.056350511 0.044739138 0.55195981 -0.31905106 0.77055669 0.0097711626
0.02447826 0.05631461 0.044041991 0.56085223 -0.32299411 0.76244897 0.0091588926
0.025233358 0.056363113 0.043373607 0.56432587 -0.32462963 0.75913382 0.0082307188
0.025991978 0.056402478 0.04271305 0.565965 -0.32808766 0.75637311 0.0073161223
0.02677211 0.056381017 0.042078704 0.5642724 -0.33291963 0.75554246 0.0066222465
0.027579419 0.056356195 0.041480392 0.56224012 -0.33707079 0.75522959 0.0057220394
0.028405963 0.056360397 0.040915456 0.56225544 -0.34015909 0.75383556 0.0048842458
0.02923768 0.056360539 0.040359739 0.56668848 -0.34374675 0.74885428 0.0043880404
0.030072587 0.056408297 0.039817527 0.57657421 -0.34560081 0.74042267 0.0043086195
0.030892566 0.056465309 0.03925604 0.59143531 -0.34723076 0.72781259 0.0043470375
0.031673975 0.056491535 0.038649961 0.60633677 -0.34816101 0.7149927 0.0043745129
0.032391511 0.056505501 0.037949417 0.61376792 -0.34389701 0.71069461 0.0054362179
0.03307794 0.05654408 0.037204329 0.61772996 -0.33311266 0.71256769 0.0089446763
0.033742134 0.056495395 0.036393385 0.61678451 -0.32248989 0.71855944 0.01529245
0.034396667 0.056455113 0.035556089 0.60763937 -0.30275923 0.73484409 0.02335416
0.035051428 0.056359816 0.034693409 0.5833649 -0.27461973 0.7647202 0.034091529
0.035734281 0.056295488 0.033940293 0.54847169 -0.23887865 0.80133373 0.041795228
0.036462795 0.056172337 0.033223238 0.49905419 -0.19796829 0.84396446 0.049709409
0.037234176 0.05609319 0.032660205 0.45227969 -0.15549918 0.8784647 0.056616757
0.03806372 0.056092598 0.032265548 0.42042628 -0.12243547 0.8996805 0.058531839
0.039523579 0.084310077 -0.012698836 0.81857735 -0.038739376 -0.57330507 0.0089283781
-0.062137935 0.15522696 -0.032612942 0.94950998 -0.28066728 -0.14023454 0.024118232
-0.018382369 0.18641576 -0.019246992 0.83844477 -0.47372678 0.53123003 0.11376663
0.03621633 0.094165154 0.036769871 0.75801206 0.25111663 0.60197777 0.0045300541
-0.020024845 0.18012105 -0.01933766 0.74571455 -0.037249252 0.66683275 0.12189429
-0.086696252 0.11487585 0.04607584 -0.48598263 -0.55216217 0.67754352 0.030272601
-0.0011012835 0.10378734 0.043893486 0.043413498 0.49392343 0.86862546 0.035474677
-0.048545107 0.1238757 0.029785784 0.70934755 0.28671768 0.64408565 0.041312303
0.048443079 0.056748766 0.031308021 0.33684343 -0.001608848 0.94241184 0.033386957
0.049386129 0.056758486 0.030966755 0.38671389 -0.029145556 0.92205894 0.033319455
0.050302479 0.056760371 0.030514177 0.4397614 -0.059301339 0.89624834 0.033185098
0.051177137 0.056770377 0.029974572 0.49301019 -0.091604605 0.86520398 0.028951628
0.052013319 0.056792736 0.029401967 0.54573298 -0.12493449 0.82887232 0.024184167
0.052804276 0.056828827 0.028787943 0.58798265 -0.14779849 0.79535329 0.021621387
0.053564683 0.056824978 0.028136058 0.62965488 -0.1708746 0.75797909 0.018546484
0.054306407 0.056798823 0.027437029 0.66874135 -0.19076499 0.71871418 0.016914664
0.055034816 0.056750126 0.026681731 0.70620906 -0.21034655 0.67619419 0.01545
0.055731047 0.056708336 0.025886113 0.74206603 -0.22605608 0.63128203 0.014854955
0.056396376 0.056643318 0.02500614 0.77776337 -0.24135691 0.58057564 0.01400763
0.05699563 0.056628153 0.02411804 0.81016678 -0.25192305 0.52964866 0.013441406
0.057531461 0.056632519 0.023198385 0.83924299 -0.25934973 0.47819999 0.012656596
0.058022417 0.056619849 0.022207418 0.86578149 -0.26620886 0.4238905 0.011509868
0.029836915 0.096868083 0.041548111 0.5688017 0.35142413 0.74364996 0.003533867
-0.025247982 0.1580961 -0.0015622625 0.64748853 0.025456639 0.84108663 0.16030273
-0.048573166 0.14921901 0.010385868 0.79543501 -0.036883079 0.60510939 0.05919775
-0.0050710342 0.10284382 0.044463154 -0.019102739 0.54392481 0.83893234 0.043858595
-0.062458027 0.12128616 0.044844646 0.79838711 -0.10316622 0.59371126 0.031247333
-0.015738728 0.16528609 -0.016218187 0.3017399 0.65675002 0.71155602 0.12189168
-0.065445513 0.16546892 -0.05361988 0.97728342 -0.2126769 0.030539865 0.15344226
-0.066780001 0.12425179 0.050914548 0.62184566 0.17035784 0.764489 0.027059222
-0.030059189 0.16685826 -0.0060610319 0.90088439 0.22240211 0.44558617 0.25924441
-0.05831999 0.12124291 0.04023461 0.64962041 -0.14762019 0.74624705 0.027305966
-0.030373238 0.1753069 -0.0086391568 0.61874449 0.14657001 0.77196527 0.1612552
-0.019682182 0.16331935 -0.013608611 0.27623501 0.66422755 0.70378178 0.1487145
-0.047182161 0.12661327 0.026586229 0.74846494 0.39348862 0.53435248 0.039483029
-0.042011283 0.14750567 0.00033224214 0.48713398 -0.874686 -0.029641006 0.085423574
-0.055662431 0.14673463 0.030147092 0.8467139 0.14740773 0.51158899 0.016484512
-0.036616672 0.15345892 0.0029926985 0.59228492 -0.37261528 0.71824366 0.10340985
-0.050388284 0.14780974 0.012895016 0.88527316 0.10959513 0.4524979 0.045928981
-0.05949188 0.14815117 0.035249829 0.64585298 0.26709917 0.71535617 0.032591309
-0.027428437 0.15748218 -0.002583469 0.64539069 -0.43088859 0.75787169 0.14091481
-0.026717557 0.15764944 -0.0032126673 0.64873004 -0.47864285 0.69429386 0.14583401
-0.026274601 0.15812689 -0.0040053162 0.62645394 -0.62403059 0.54666585 0.15468404
-0.019631347 0.17523456 -0.019472089 0.61076802 0.17986362 0.7711544 0.1474153
-0.045670647 0.15796097 0.0075736032 0.35414669 0.30540511 0.88393813 0.029466426
-0.013850718 0.16284214 -0.013617048 0.0084325457 0.9254837 0.58053738 0.12936102
0.009918415 0.1136902 0.039039146 0.19945239 0.39833465 0.89538878 0.0047208355
-0.040112816 0.16120061 0.0035791046 0.43722785 0.27000481 0.85805482 0.027182307
-0.015466614 0.17814448 -0.023315394 0.7253567 0.21529335 0.65404963 0.094936021
-0.049875271 0.13099261 0.029786659 0.78868979 0.35499403 0.50194395 0.0065636784
-0.024310393 0.18045938 -0.014806715 0.78268921 -0.27502921 0.58839428 0.14583421
-0.062510692 0.14392848 0.037777022 0.67280674 0.11402401 0.73128718 0.020270824
-0.027346 0.15949583 -0.0012171451 0.56786799 -8.9659974e-05 0.83294404 0.13382407
0.040071502 0.095330246 0.030015895 0.85159892 0.24709785 0.46230194 0.0020948856
-0.064496018 0.1367846 0.040079087 0.74946076 0.20294945 0.63025826 0.0093659656
-0.065097176 0.13678449 0.041070223 0.75694054 0.20935006 0.61929888 0.0081512313
-0.063244469 0.13681515 0.038246132 0.72014987 0.20167258 0.66388184 0.013300774
-0.060349494 0.13681614 0.035470095 0.65144962 0.24751835 0.71725297 0.015149099
-0.059552703 0.13674788 0.034914043 0.64288068 0.26304391 0.71949285 0.015026524
-0.057131484 0.13671552 0.03319646 0.64843065 0.3105714 0.69527817 0.016209144
-0.05633809 0.13674214 0.032572642 0.66244996 0.32612047 0.67468292 0.017079121
-0.055564005 0.13675101 0.031920366 0.68191963 0.34151748 0.6470775 0.01746339
-0.051747311 0.13110352 0.032209348 0.72513044 0.36067259 0.58661366 0.0057719247
-0.033579081 0.16848989 -0.0030293702 0.54586399 0.29545859 0.79293144 0.12616503
0.021875937 0.11794142 0.033554208 0.38385913 0.58393639 0.71534282 0.0068495688
0.039209388 0.10834295 0.0091668842 0.85335881 0.52059281 -0.028178232 0.0020138589
-0.051105075 0.13104302 0.031456001 0.74760449 0.35512617 0.56125867 0.0058843959
-0.050416652 0.126837 0.032486849 0.77260333 0.19875298 0.60298395 0.0070933588
-0.020633021 0.16846617 -0.016660098 0.43063787 0.41734311 0.80130374 0.16409707
-0.018465977 0.1784147 -0.020761956 0.69987255 0.10673855 0.70644271 0.1166228
-0.058733162 0.13107195 0.037928715 0.57005918 0.39235759 0.72201741 0.0042200508
-0.059596103 0.1310892 0.038437825 0.58261371 0.38977072 0.71339792 0.0054896986
0.010749812 0.057716306 0.052215867 0.40336171 -0.24049221 0.882909 0.0054126508
0.011654881 0.057757076 0.051752061 0.41723865 -0.23887943 0.87689638 0.0052940245
0.012508517 0.057716817 0.051283419 0.42614263 -0.23850437 0.87270027 0.005367191
0.013368627 0.057676014 0.050818972 0.43321303 -0.23801459 0.86933273 0.0055197398
0.014237083 0.057610139 0.050374489 0.43852282 -0.23671611 0.86702597 0.0059082811
0.015141814 0.057588253 0.04993448 0.44527429 -0.23736715 0.86339945 0.0062578749
0.016061513 0.057590015 0.049509861 0.45379484 -0.23942044 0.85839492 0.0066931592
0.017013576 0.057660859 0.049096953 0.46442035 -0.2368661 0.85342908 0.0071051442
0.017978925 0.057802361 0.048687074 0.47451237 -0.23143935 0.84934443 0.0072219628
0.018910792 0.057908911 0.048262648 0.48529038 -0.23001438 0.8436588 0.0071918909
0.019836156 0.057949472 0.047841616 0.49322054 -0.23239702 0.83833134 0.0080091432
0.020729242 0.057961557 0.047379889 0.50524998 -0.23510933 0.83034766 0.0086564245
0.021582024 0.057914998 0.046877112 0.51890695 -0.24053039 0.82034045 0.0091621289
0.022409013 0.057843007 0.046323657 0.53335327 -0.24804053 0.80885518 0.0095220432
0.023211366 0.057783041 0.045728136 0.54733247 -0.25570849 0.79721165 0.0096920496
0.023982815 0.057729386 0.045091573 0.55856538 -0.26113704 0.78742343 0.01036913
0.024750257 0.057722002 0.044440456 0.56665915 -0.26603997 0.77995539 0.010224012
0.025523908 0.057789724 0.04379902 0.57054818 -0.26891094 0.77610368 0.009978056
0.026299084 0.057815347 0.043168616 0.56952906 -0.27529371 0.77460045 0.0094078816
0.027087567 0.057840064 0.042554606 0.56707722 -0.28057575 0.77442181 0.0085770003
0.027892448 0.057813894 0.041957472 0.56510454 -0.28847167 0.77298898 0.0075133722
0.028717071 0.057779249 0.04138276 0.56541538 -0.29644278 0.76977152 0.0064717834
0.029551869 0.057779253 0.040826246 0.56975383 -0.30246517 0.7641688 0.0056852312
0.030385958 0.05782003 0.040283453 0.57938313 -0.3061879 0.75541705 0.0055555347
0.031200917 0.057828564 0.039709739 0.59403199 -0.31040648 0.74216682 0.0054181442
0.031988114 0.057852361 0.039110899 0.61338037 -0.31330398 0.72502083 0.0054023545
0.032738388 0.057891227 0.038458053 0.62869781 -0.31093118 0.71282941 0.0052229464
0.033438414 0.057913717 0.037730932 0.63784492 -0.30518934 0.70715463 0.0065454333
0.034095794 0.057917319 0.036935348 0.63934225 -0.29516768 0.71032929 0.011712607
0.034742188 0.057877619 0.036086179 0.6361059 -0.27681369 0.72095323 0.019671513
0.035372596 0.057848662 0.035225589 0.62683171 -0.2530213 0.73767662 0.028658226
0.035995286 0.057749987 0.034321155 0.59905374 -0.22439815 0.76907814 0.03850355
0.0366912 0.057652872 0.033557151 0.5615204 -0.18047231 0.80781645 0.045386288
0.037422061 0.057592049 0.032870278 0.51251644 -0.13141146 0.8492645 0.05567959
0.038209036 0.057544418 0.032314088 0.46812508 -0.087464266 0.87963444 0.062331419
-0.068013303 0.13685398 0.045652404 0.67648381 0.27870232 0.68188322 0.014760951
-0.067374393 0.13684832 0.044799805 0.71066219 0.25904134 0.65418124 0.011968039
-0.064626336 0.12280859 0.048734259 0.76598614 0.066192895 0.63962698 0.021453436
-0.06521184 0.12282866 0.049639188 0.73006368 0.07431332 0.67944908 0.024997516
-0.065862767 0.12283957 0.050480589 0.68452847 0.078227244 0.72498643 0.028715149
-0.066573747 0.1228459 0.05121487 0.62745512 0.078270175 0.77483934 0.031650919
-0.066773556 0.13683365 0.043915361 0.73718089 0.2409558 0.63147682 0.0094528459
-0.066190071 0.13682273 0.042963296 0.75126344 0.22881579 0.61941582 0.0081660086
-0.036441345 0.15208609 0.0014842469 0.59132552 -0.61444652 0.52980602 0.098564677
0.049379691 0.058149621 0.03093197 0.35134226 0.058383498 0.93548566 0.034539253
0.050333079 0.058161497 0.030574376 0.40011024 0.03353731 0.91593957 0.033894598
0.051255926 0.058179684 0.030104538 0.45834178 0.00062746066 0.88890034 0.03296075
0.052116603 0.058188666 0.02956715 0.51137358 -0.029067792 0.85890633 0.029489776
0.052926004 0.058191035 0.028974606 0.56039113 -0.056278873 0.8263905 0.025440818
0.053720202 0.058198441 0.028362855 0.60844237 -0.082317054 0.7893278 0.023672977
0.05448316 0.058174528 0.027683865 0.65445197 -0.10622039 0.74867451 0.021238567
0.055213217 0.058154825 0.026962729 0.69720858 -0.12800364 0.70545894 0.018838394
0.055937134 0.058090888 0.026150029 0.73899955 -0.1466915 0.65768027 0.017669218
0.056615159 0.058029864 0.025277 0.77840561 -0.16465451 0.60595953 0.016347867
0.057230517 0.058008995 0.024382202 0.81410962 -0.17806418 0.55320549 0.015349456
0.057760838 0.0580297 0.023502741 0.8444531 -0.18651341 0.50269699 0.014375748
0.058240768 0.058035091 0.022562495 0.87152076 -0.1951748 0.45004314 0.012653902
0.058699258 0.058004696 0.021510454 0.89650786 -0.20473684 0.39299774 0.011209367
0.036621638 0.095496684 0.035530418 0.76674902 0.28220731 0.57660502 0.0036863119
0.032765523 0.094276629 0.040481113 0.64138895 0.26781356 0.71901482 0.006028431
-0.04984878 0.14923769 0.011933378 0.82674861 0.10038632 0.55356592 0.062328923
-0.062992282 0.12132651 0.045872279 0.80776775 -0.081745461 0.58423299 0.027152456
-0.02076545 0.18016747 -0.018635709 0.75380439 -0.066419408 0.65636671 0.12461283
-0.012965348 0.16315162 -0.014005905 0.049308863 0.88745546 0.57703453 0.12592794
-0.034714088 0.16107088 0.00056002382 0.53908056 0.22499421 0.81309795 0.054474846
-0.0284326 0.16962022 -0.0092755007 0.87782073 0.34131852 0.34338257 0.2432767
0.044502188 0.095989443 0.012165163 0.96490943 0.25756878 0.05131302 0.0021916206
-0.029627245 0.17550252 -0.010610689 0.72593671 -0.028626265 0.69583684 0.18594779
-0.020784339 0.16335601 -0.013439031 0.31361368 0.62597036 0.71846378 0.15734592
-0.021792326 0.16316232 -0.013121746 0.34110478 0.61296529 0.71429306 0.16919985
-0.061107919 0.13682178 0.036089621 0.66478264 0.23455651 0.70931756 0.014968658
-0.056144945 0.14678416 0.031053076 0.82118362 0.14740537 0.55204368 0.019571818
-0.047417764 0.14778665 0.0085917367 0.81871408 -0.25269991 0.51604104 0.070331194
0.032609012 0.098202474 0.03852367 0.63573307 0.37267491 0.67600131 0.0031905305
-0.052578662 0.11556424 0.034550596 0.37297234 0.22754639 0.89951408 0.066545814
0.037916575 0.1007059 0.030351497 0.79777926 0.34245771 0.49625748 0.0027309633
-0.071398489 0.12989058 0.051346544 0.40582141 0.29475296 0.86540103 0.021649553
-0.066287085 0.11425073 0.046329252 0.60648096 -0.63858372 0.47374159 0.021884741
-0.056847598 0.14532788 0.031919304 0.79248166 0.085909881 0.60419232 0.012759277
-0.044823039 0.15801914 0.0071193376 0.38480982 0.26969984 0.88278431 0.026969828
-0.024490923 0.15812749 -0.0022207783 0.69380522 0.14128257 0.9359352 0.16015247
-0.053477935 0.13671458 0.029678468 0.75093609 0.38099125 0.53952271 0.016487828
0.024295244 0.10207044 0.042314894 0.44289759 0.46813029 0.76471865 0.0036474736
-0.014105481 0.17803769 -0.024696736 0.74093729 0.24622178 0.6254251 0.093917765
0.0054561622 0.11080371 0.041166257 0.17300142 0.34313658 0.92350423 0.008231123
-0.082806475 0.10883697 0.00023446976 0.8210147 -0.062473327 0.56769955 0.032682765
-0.040213492 0.16251066 0.0032779372 0.41083223 0.3158015 0.85590744 0.034884509
-0.033181489 0.15924214 0.00074385694 0.49877119 0.13508661 0.85698795 0.070118107
-0.066709623 0.12706658 0.049235016 0.6620416 0.29742792 0.68811893 0.014190944
-0.062600076 0.14249042 0.037641287 0.70220023 0.080928974 0.70779085 0.01355336
-0.059731726 0.13825028 0.034533449 0.66953754 0.19360994 0.71723652 0.016389038
-0.063473105 0.13120368 0.041496072 0.69367653 0.34664452 0.63142288 0.0093598934
-0.064133234 0.13118793 0.042325549 0.71422249 0.33785141 0.61299813 0.0082428865
-0.064747736 0.1312028 0.043195177 0.73153347 0.32889485 0.59726411 0.0065827472
0.026714714 0.11402594 0.033531763 0.49814299 0.5325737 0.6843248 0.005949751
-0.069223776 0.13132013 0.049116902 0.58695102 0.33024177 0.73945969 0.01534875
-0.069997571 0.13132137 0.049785346 0.53377795 0.32942057 0.77901757 0.016762136
-0.070813946 0.13129005 0.050390847 0.47759941 0.32422131 0.81692523 0.018222529
-0.052226849 0.12263654 0.035047445 0.70026594 0.031728454 0.71346456 0.017340053
-0.04691162 0.15357876 0.0092584463 0.55113757 0.11496309 0.82711691 0.041982174
-0.068692423 0.13686201 0.046424422 0.63534242 0.30094507 0.71138817 0.017112212
0.024479827 0.10997169 0.037287027 0.39044863 0.4790332 0.7862345 0.0043191882
-0.093996584 0.12278095 0.014273075 0.98369169 0.017699055 0.17904368 0.0080300765
-0.044335753 0.15213966 0.0076941489 0.60493034 -0.14662117 0.7826978 0.04469927
-0.049007289 0.121101 0.030853525 0.6016776 0.30076483 0.74000311 0.056332253
0.0089370366 0.05884679 0.053327538 0.36219969 -0.22800016 0.90379113 0.0062473603
-0.035780709 0.15220049 0.0007253919 0.57940489 -0.6783163 0.45635667 0.092986815
-0.054700185 0.1496394 0.027761109 0.8545332 0.33975673 0.39296472 0.033208199
0.01171239 0.058986824 0.051968362 0.42065501 -0.21731955 0.88082427 0.0046250755
0.012573655 0.058953699 0.051492244 0.43066856 -0.21624218 0.87625647 0.0045482912
0.013436674 0.058913689 0.051020168 0.43818322 -0.21270245 0.87338191 0.0045172884
0.014319526 0.05889548 0.050561812 0.44398805 -0.20949107 0.87121689 0.0046079452
0.015244187 0.058931652 0.050116871 0.450982 -0.20608032 0.86844707 0.0048540174
0.016180966 0.058965281 0.049689408 0.46085775 -0.20305546 0.86399937 0.0051296158
0.017126933 0.059033018 0.049275644 0.46989247 -0.20001812 0.85986602 0.0055449647
0.018082088 0.059127234 0.048855677 0.47991931 -0.1957012 0.85532486 0.0060308604
0.019015435 0.059230089 0.048433777 0.48630306 -0.19269013 0.85235167 0.0062554181
0.019936824 0.05929869 0.047987241 0.49544239 -0.18818808 0.84804213 0.0066129258
0.020820377 0.059311345 0.047520183 0.50832999 -0.18654226 0.84072381 0.0069398736
0.021674959 0.059248511 0.047022481 0.52231133 -0.18975766 0.83137876 0.0075940546
0.022512512 0.059232146 0.046493646 0.53745812 -0.19157584 0.82125157 0.0081242956
0.023335734 0.059174627 0.045929439 0.55086577 -0.19497636 0.8115322 0.0086680343
0.024127603 0.059126403 0.045315336 0.56252849 -0.20155539 0.80188638 0.0089321155
0.024918802 0.059111916 0.044698138 0.56894284 -0.2075181 0.79585361 0.0093180621
0.02571374 0.059191786 0.044093855 0.57097888 -0.20992364 0.79373091 0.0098286998
0.026512424 0.059239272 0.043495197 0.56975275 -0.21526754 0.79319727 0.0096227033
0.027313499 0.059216261 0.04289338 0.56649047 -0.22466575 0.79289961 0.0094105257
0.028132208 0.059195835 0.042318068 0.56411195 -0.23490338 0.79161191 0.0087329103
0.028958593 0.059124999 0.04174646 0.56479019 -0.24623409 0.78768146 0.0077576791
0.029796911 0.059122499 0.041194513 0.57045239 -0.25380865 0.78120732 0.0067977849
0.030638773 0.05915818 0.040646292 0.58082366 -0.25942004 0.77161843 0.0065284171
0.031463817 0.059200224 0.040090915 0.5956279 -0.26455435 0.75847584 0.0065612886
0.032254051 0.059255209 0.039507724 0.61658233 -0.26668519 0.7407856 0.0064337947
0.033018123 0.059285168 0.038885318 0.63742107 -0.26965752 0.72184283 0.0062626116
0.033728942 0.059263095 0.038155686 0.65027636 -0.26806641 0.71087533 0.006336139
0.034416832 0.059284579 0.037426893 0.66167182 -0.26183078 0.70267051 0.0081808036
0.035047174 0.059257742 0.036563683 0.66160184 -0.24716684 0.70841867 0.014917111
0.03565773 0.059233289 0.035686634 0.6574679 -0.22948095 0.71869904 0.023997542
0.036291882 0.059140678 0.034776576 0.64541644 -0.20282583 0.73698401 0.032280963
0.03691658 0.059092335 0.033917442 0.62065619 -0.16796739 0.76593751 0.042607773
0.037596386 0.059016563 0.03312334 0.57614285 -0.1153532 0.80980426 0.051817797
0.038318966 0.058944844 0.032402705 0.52189207 -0.061407875 0.85222596 0.061009612
0.039100353 0.058947667 0.031871885 0.48051271 -0.016823361 0.87697655 0.065748371
-0.055079691 0.047660373 0.039939314 0.23114586 -0.85267496 -0.47228831 0.025500625
-0.0014685179 0.10648768 0.043255653 0.053190637 0.33679876 0.94060981 0.021235242
-0.063698836 0.12416242 0.046611 0.78571117 0.14314641 0.60198432 0.018528124
-0.063143656 0.12414057 0.045643371 0.78597927 0.12837927 0.60508865 0.022418117
-0.062558308 0.12412625 0.044688035 0.7767235 0.11537224 0.61959559 0.026161989
-0.061941177 0.12410977 0.043813288 0.75797111 0.10237198 0.64454007 0.029591132
-0.048690215 0.14774644 0.01013772 0.85051697 -0.10466505 0.51560187 0.061170861
0.045554236 0.086195633 0.017170992 0.98876494 0.10042998 0.11074118 0.0010823195
-0.093002573 0.12152074 0.03428226 0.99816287 0.060912263 -0.0089728152 0.018328618
-0.072072998 0.12847342 0.052180689 0.31858942 0.24703264 0.91538125 0.024685256
0.051254172 0.059532247 0.030083956 0.41861373 0.092938267 0.90346354 0.034173243
0.052136622 0.059541214 0.029596686 0.47515586 0.064271986 0.87757701 0.030440347
0.052978415 0.059545331 0.029061092 0.53120446 0.034403592 0.84654993 0.028910395
0.05378367 0.059549671 0.028466245 0.58503866 0.0058457619 0.81098545 0.025195409
0.054569919 0.059542567 0.027833972 0.63501233 -0.019511484 0.77234167 0.023910951
0.055320375 0.059526175 0.027134834 0.68238872 -0.043226078 0.72991979 0.021599393
0.0560604 0.0594742 0.026344851 0.72896427 -0.065328673 0.68168408 0.020162681
0.056731392 0.059443641 0.025509421 0.77184159 -0.083794922 0.63070196 0.018039506
0.057352457 0.059419334 0.024622723 0.81069702 -0.099407919 0.57751292 0.016171873
0.057913925 0.059398521 0.023707503 0.84487504 -0.11289647 0.52363682 0.014918601
0.058415428 0.059389587 0.022770863 0.87406522 -0.12380506 0.47023356 0.013732349
0.058872499 0.059373256 0.021774366 0.89948517 -0.13454992 0.41598862 0.01250865
0.031720091 0.095566347 0.04075326 0.61283892 0.31218341 0.72598785 0.0047247973
-0.057494756 0.12548542 0.039739653 0.62857938 0.14005592 0.7651177 0.01790834
-0.031006644 0.17222208 -0.0079972222 0.58936793 0.26983416 0.76186645 0.18720756
0.039726257 0.094032496 0.031276785 0.84532547 0.22403659 0.48501167 0.0020617407
-0.054822311 0.13678013 0.031199092 0.7044493 0.35558799 0.61441767 0.018190864
-0.073295452 0.12986259 0.052196581 0.26156121 0.26222113 0.92985654 0.023735169
-0.040244516 0.1520368 0.0047609415 0.61945164 -0.37358174 0.69103402 0.075941309
0.039603002 0.097983047 0.029316338 0.84075928 0.2947416 0.45415902 0.0026124807
0.03765941 0.092824683 0.035260849 0.80201322 0.20628415 0.56056237 0.0036206811
0.0064274855 0.11086002 0.040898517 0.17170946 0.35916269 0.91761494 0.00905063
-0.029251415 0.17582028 -0.011509331 0.75012106 -0.1165871 0.65887016 0.19566892
-0.0228728 0.16315946 -0.012772867 0.3945705 0.58405358 0.70955878 0.17629795
0.031962816 0.10347039 0.035825338 0.63335085 0.40125641 0.66171068 0.0040048552
-0.056688219 0.146824 0.031943142 0.79292625 0.14881584 0.59178442 0.021678014
-0.047773987 0.15355188 0.0097698215 0.55222881 0.17722219 0.81577832 0.049551822
-0.012848007 0.17011379 -0.021490863 0.5817731 0.49857768 0.64744925 0.10816403
-0.059080597 0.1410374 0.033764638 0.71121389 0.092760175 0.69703931 0.014221194
-0.070168406 0.14393327 0.044304736 0.36827123 0.50755709 0.77902532 0.029901456
0.02287318 0.09811452 0.045486312 0.40253666 0.36559901 0.83923149 0.006301499
-0.055175059 0.12129602 0.037815697 0.61773497 -0.10031975 0.78006786 0.016752034
0.045566965 0.087597989 0.015167926 0.990848 0.10892425 0.079739302 0.00062749436
0.027003923 0.11536489 0.032196518 0.52691293 0.56576508 0.63431042 0.0060079303
-0.067993365 0.14528391 0.042157099 0.44772896 0.46122006 0.7662943 0.03270578
-0.034943771 0.16571359 -0.0014918234 0.54826593 0.30154651 0.78143269 0.050106633
-0.05663576 0.13820408 0.032085773 0.69894546 0.2630986 0.66544157 0.021317417
-0.013336595 0.1780155 -0.02543016 0.73413092 0.25917125 0.62820292 0.096309081
-0.087881871 0.095499612 0.005336835 0.95378071 -0.065489754 0.29333925 0.0028031787
-0.039427403 0.16264473 0.0027594001 0.4343054 0.30696401 0.84760183 0.033862155
-0.035079908 0.15925907 0.0015785141 0.50071448 0.16168502 0.85042959 0.05401969
0.045784757 0.089018382 0.0081719365 0.99372143 0.10663431 -0.033965975 0.0022130352
-0.063916191 0.14252296 0.039167993 0.69397444 0.13890171 0.70684791 0.019858038
-0.064915903 0.13540268 0.041144297 0.75342226 0.24219516 0.61144745 0.008491558
-0.092844203 0.1214359 0.029311147 0.98577923 0.14787035 -0.079935022 0.029334808
0.044885635 0.094581239 0.0061736088 0.97079921 0.22424251 -0.085369729 0.0034050795
-0.073524408 0.13127489 0.051849086 0.27026236 0.29953322 0.91603762 0.021875164
0.028319497 0.11393206 0.032381389 0.55571616 0.54059964 0.63162553 0.0058783647
0.027515784 0.11401824 0.032954022 0.52775013 0.5374403 0.65776819 0.0060125277
0.040335543 0.10563665 0.01616667 0.88979614 0.44579226 0.097658977 0.0014557337
0.044883184 0.091755174 0.0021839642 0.96676594 0.16221002 -0.19763155 0.0039763022
0.036293183 0.084051669 -0.01659216 -0.69785875 0.018367108 0.71610981 0.010634953
-0.073452428 0.15390773 -0.03300273 0.92127085 0.31082195 0.25022647 0.099083029
-0.068160661 0.13827832 0.045438863 0.65014929 0.29034784 0.70224339 0.018426172
-0.0078763133 0.10594624 -0.02280649 -0.0080489833 -0.38294077 0.92399484 0.011749048
-0.034232199 0.16839291 -0.0022184364 0.54432398 0.24991827 0.80800951 0.095228769
0.0063623632 0.060297895 0.054704566 0.26788002 -0.21052599 0.94022417 0.0084543275
0.0072952588 0.060278405 0.054370679 0.30349365 -0.21090785 0.92926186 0.0078970408
0.0082451645 0.060291458 0.053990345 0.33792058 -0.21077754 0.91731441 0.0069758957
0.0091150878 0.060230058 0.053595893 0.36595786 -0.21000037 0.90667319 0.0062584965
0.010005449 0.060207028 0.053153291 0.39177957 -0.20857973 0.89612985 0.0052918051
0.010916871 0.060251229 0.052679211 0.41238919 -0.20665047 0.88728672 0.0044870721
0.011794529 0.06024256 0.052196808 0.42589658 -0.20355575 0.88161045 0.0041588559
0.012642 0.060195655 0.051708303 0.43580115 -0.20053348 0.877446 0.0039693271
0.013526313 0.060216341 0.051213805 0.44384703 -0.19457442 0.87474388 0.0038294042
0.014418343 0.060234658 0.050738305 0.4504557 -0.18913063 0.87254649 0.0037559916
0.015337243 0.060277659 0.050283499 0.45914674 -0.18256329 0.86941892 0.0038499923
0.016279228 0.060346041 0.049845722 0.46770728 -0.17680846 0.8660664 0.0040373267
0.017208159 0.060377602 0.049425896 0.47615877 -0.17291738 0.86226749 0.0043423669
0.018152438 0.060438164 0.048992839 0.48604167 -0.16811679 0.85770196 0.004689123
0.019079085 0.060531557 0.048545633 0.49378258 -0.16131586 0.85457772 0.0050403262
0.019968227 0.060583726 0.04807923 0.5020569 -0.1571359 0.85050589 0.0053057545
0.020855475 0.060628727 0.047597993 0.51333332 -0.15210897 0.84465653 0.0055653746
0.021716127 0.060615603 0.047093544 0.52738839 -0.14944887 0.83641762 0.0058437479
0.022555402 0.060581725 0.046565689 0.5415259 -0.14848967 0.82749671 0.0061135171
0.023383796 0.060531572 0.046008002 0.55389804 -0.14686124 0.81954211 0.006229524
0.024198655 0.060505524 0.045431875 0.5632484 -0.14880858 0.81278127 0.0065586842
0.0250063 0.060516119 0.044843126 0.5682953 -0.15155496 0.80875158 0.0071510999
0.025812 0.060554124 0.04425779 0.56865066 -0.15704906 0.80746424 0.007695165
0.02663484 0.060614824 0.043687176 0.56609356 -0.16073103 0.80853653 0.0082837828
0.027463175 0.060617898 0.043126509 0.5624935 -0.16854022 0.80946207 0.0085395891
0.028295707 0.060567223 0.042566568 0.56021279 -0.17874877 0.80884987 0.0082512563
0.029134983 0.060506936 0.042016029 0.56112319 -0.19048922 0.80554634 0.0076365122
0.029979134 0.060502846 0.041477453 0.56736034 -0.19889954 0.79913199 0.0070973895
0.030827621 0.060503591 0.040929623 0.57934391 -0.20764545 0.78824103 0.0068427497
0.031649724 0.060532738 0.04037274 0.59710568 -0.21405327 0.77311218 0.0068232324
0.032451522 0.060610771 0.039808311 0.61675668 -0.21800819 0.75639176 0.0069807819
0.033223215 0.060632378 0.039192677 0.6398946 -0.22312538 0.73539752 0.0069179446
0.03396697 0.060635686 0.038518932 0.65975833 -0.22546065 0.71691841 0.0064687636
0.03466922 0.060616698 0.037777152 0.6735093 -0.22386718 0.70447797 0.0070614722
0.035323083 0.060612723 0.036981873 0.68225479 -0.21484867 0.6989429 0.011018462
0.035944905 0.060587686 0.036119822 0.68585795 -0.19977407 0.70037973 0.01803289
0.036539476 0.060569033 0.035229068 0.68186259 -0.17685321 0.71058202 0.026279945
0.037116975 0.060525898 0.03430374 0.67033684 -0.14934051 0.72755772 0.037966173
0.037773158 0.060425691 0.033394177 0.63772047 -0.10441405 0.76319891 0.046193309
0.03842587 0.060367085 0.03255818 0.58890766 -0.049039531 0.80724227 0.057539959
0.039151419 0.060321502 0.031867977 0.53186464 0.0064037694 0.84784007 0.065006763
0.039938916 0.060330343 0.031321622 0.48100111 0.057846081 0.8753404 0.068991415
0.040759698 0.060383998 0.030887555 0.43403861 0.10331835 0.89498001 0.066937849
-0.044585116 0.1478145 0.0056223557 0.70935732 -0.56860697 0.41877678 0.07705728
-0.061668754 0.1269557 0.042386498 0.69090849 0.2630949 0.67342687 0.019766185
-0.062371142 0.12695853 0.043134354 0.71272463 0.26698884 0.64872044 0.019285293
-0.063083135 0.12688923 0.044028841 0.73312539 0.27218768 0.62328577 0.016338442
-0.063699 0.12690805 0.044899356 0.74417078 0.27836514 0.6072892 0.012925636
-0.06428875 0.12691022 0.045846365 0.74798703 0.28267556 0.60064626 0.01057943
-0.059041902 0.11536642 0.037356243 0.44427034 -0.15838209 0.882191 0.055392247
-0.049059596 0.1225293 0.030712109 0.67538309 0.25619459 0.69173479 0.04377887
0.051157918 0.060861446 0.029945381 0.37499192 0.18084164 0.90952891 0.035604708
0.052075207 0.060880262 0.029525749 0.43771154 0.15163632 0.88666898 0.033553183
0.052950229 0.060890388 0.029030517 0.49548057 0.12491895 0.85975397 0.032673217
0.053780075 0.060893018 0.028468408 0.55136305 0.099545769 0.82835209 0.028524231
0.054577854 0.060893666 0.027865112 0.60792369 0.070865057 0.79088438 0.025976598
0.055351574 0.060884271 0.027200971 0.66052723 0.047017686 0.74959314 0.024819776
0.056074485 0.060866449 0.026466131 0.70969462 0.025158865 0.70428938 0.022002449
0.056762598 0.060840022 0.025660969 0.75649744 0.0043398654 0.65423894 0.020010807
0.05739915 0.060815759 0.024802594 0.79909682 -0.014595031 0.60141718 0.0182992
0.057978816 0.060792908 0.023906816 0.83659011 -0.031312808 0.54749131 0.017001793
0.05851844 0.060758896 0.022944309 0.87052244 -0.047866531 0.49056929 0.015433992
0.059000362 0.06072852 0.021957466 0.89852309 -0.061851457 0.43532747 0.014640158
0.038949203 0.09536954 0.031974237 0.82599574 0.25591892 0.50223702 0.0024052525
-0.062534891 0.13685304 0.037437819 0.70014584 0.21026462 0.68234885 0.014205854
